ply
format ascii 1.0
element vertex 1314
property float x
property float y
property float z
property uchar red
property uchar green
property uchar blue
end_header
0.281860 0.174968 0.096069 150 0 0
0.281760 0.177636 0.094554 150 0 0
0.278373 0.201929 0.087809 150 0 0
0.274172 0.232885 0.076702 150 0 0
0.276518 0.231019 0.075884 150 0 0
0.273745 0.246477 0.072866 150 0 0
0.271457 0.250022 0.071377 150 0 0
0.267131 0.279798 0.060758 150 0 0
-0.258530 0.297257 0.056573 150 0 0
0.260006 0.302080 0.052506 150 0 0
-0.253073 0.318748 0.047705 150 0 0
-0.231528 0.375047 0.028792 150 0 0
0.230080 0.378374 0.030381 150 0 0
0.154961 0.472786 -0.000299 150 0 0
-0.153872 0.474014 -0.000463 150 0 0
-0.136389 0.483329 -0.005062 150 0 0
-0.132802 0.484989 -0.004497 150 0 0
0.074142 0.507030 -0.012491 150 0 0
-0.028708 -0.397093 0.282793 150 0 0
-0.012539 -0.397851 0.283417 150 0 0
-0.033122 -0.394483 0.282576 150 0 0
-0.021898 -0.393820 0.281786 150 0 0
-0.011763 -0.395292 0.283114 150 0 0
-0.008022 -0.393698 0.281573 150 0 0
-0.002089 -0.395651 0.283209 150 0 0
0.005889 -0.393883 0.281945 150 0 0
-0.025453 -0.391643 0.281189 150 0 0
-0.020418 -0.391484 0.281896 150 0 0
-0.016077 -0.392473 0.281921 150 0 0
-0.010260 -0.390801 0.282202 150 0 0
-0.006777 -0.392794 0.282242 150 0 0
-0.003527 -0.392256 0.282941 150 0 0
0.000755 -0.393011 0.282094 150 0 0
0.006502 -0.392045 0.282083 150 0 0
0.013349 -0.391914 0.282025 150 0 0
0.034245 -0.392521 0.281208 150 0 0
-0.029787 -0.388173 0.279878 150 0 0
-0.020051 -0.387887 0.281877 150 0 0
-0.015371 -0.388971 0.282185 150 0 0
-0.012032 -0.388573 0.281127 150 0 0
-0.007919 -0.387408 0.282440 150 0 0
-0.004069 -0.389723 0.282186 150 0 0
0.000156 -0.388983 0.281298 150 0 0
0.007991 -0.387916 0.281683 150 0 0
0.010939 -0.389988 0.281306 150 0 0
0.015660 -0.390093 0.280949 150 0 0
0.019693 -0.388422 0.280675 150 0 0
0.021576 -0.389927 0.281312 150 0 0
-0.043274 -0.386237 0.280118 150 0 0
-0.026571 -0.387749 0.279899 150 0 0
-0.019213 -0.385084 0.280949 150 0 0
-0.017440 -0.386610 0.281728 150 0 0
-0.006758 -0.384855 0.281242 150 0 0
-0.002565 -0.386532 0.281592 150 0 0
-0.000351 -0.384858 0.281206 150 0 0
0.012120 -0.385500 0.281428 150 0 0
0.015172 -0.387170 0.281113 150 0 0
0.020556 -0.386829 0.280835 150 0 0
0.026248 -0.386172 0.280316 150 0 0
0.030890 -0.387029 0.280385 150 0 0
0.039631 -0.386107 0.279285 150 0 0
-0.031021 -0.382269 0.279460 150 0 0
-0.023247 -0.383081 0.280730 150 0 0
0.003765 -0.384513 0.280512 150 0 0
0.005534 -0.384032 0.281037 150 0 0
0.009770 -0.383010 0.281214 150 0 0
0.012105 -0.382215 0.280418 150 0 0
0.019651 -0.383798 0.280815 150 0 0
0.020431 -0.382576 0.279942 150 0 0
0.026064 -0.382243 0.280276 150 0 0
0.028194 -0.383900 0.278767 150 0 0
0.030825 -0.383800 0.279296 150 0 0
0.034243 -0.383512 0.279500 150 0 0
-0.044520 -0.379704 0.279195 150 0 0
-0.035089 -0.380883 0.277823 150 0 0
0.001371 -0.380229 0.280127 150 0 0
0.005584 -0.380946 0.280420 150 0 0
0.010108 -0.379593 0.279951 150 0 0
0.018436 -0.379491 0.279819 150 0 0
0.027150 -0.379092 0.279146 150 0 0
0.030482 -0.380379 0.279782 150 0 0
0.037440 -0.379670 0.278690 150 0 0
-0.042884 -0.378538 0.276825 150 0 0
-0.037623 -0.377603 0.277283 150 0 0
-0.033913 -0.378627 0.277753 150 0 0
-0.029539 -0.378625 0.279010 150 0 0
0.032971 -0.375903 0.278438 150 0 0
0.039015 -0.376814 0.277206 150 0 0
-0.041018 -0.374556 0.276411 150 0 0
-0.029757 -0.375461 0.278565 150 0 0
0.036594 -0.374286 0.275644 150 0 0
0.039236 -0.373231 0.276786 150 0 0
0.043323 -0.375540 0.275891 150 0 0
-0.046992 -0.372018 0.274997 150 0 0
-0.042312 -0.371703 0.275487 150 0 0
-0.037694 -0.372351 0.277152 150 0 0
-0.034474 -0.372086 0.277225 150 0 0
0.043170 -0.371012 0.276131 150 0 0
-0.053711 -0.368815 0.274206 150 0 0
-0.045843 -0.367974 0.274335 150 0 0
-0.037932 -0.369571 0.276231 150 0 0
0.045444 -0.367238 0.276098 150 0 0
-0.062686 -0.367069 0.273761 150 0 0
-0.059460 -0.365539 0.273356 150 0 0
-0.056971 -0.365880 0.274938 150 0 0
-0.040407 -0.364586 0.275196 150 0 0
-0.039142 -0.366647 0.275731 150 0 0
0.040820 -0.366236 0.273914 150 0 0
0.049923 -0.367390 0.274927 150 0 0
0.052613 -0.366181 0.273374 150 0 0
-0.068068 -0.363867 0.272224 150 0 0
-0.058667 -0.363239 0.272578 150 0 0
-0.055892 -0.362700 0.273240 150 0 0
-0.053062 -0.363440 0.273845 150 0 0
-0.047842 -0.364507 0.273945 150 0 0
0.044478 -0.362140 0.274379 150 0 0
0.052296 -0.361956 0.273384 150 0 0
0.058937 -0.360556 0.271531 150 0 0
-0.061920 -0.358303 0.270354 150 0 0
0.048703 -0.358932 0.271279 150 0 0
0.055320 -0.358106 0.271098 150 0 0
0.059282 -0.359362 0.270507 150 0 0
-0.067617 -0.353480 0.271298 150 0 0
-0.066458 -0.356364 0.269843 150 0 0
-0.060143 -0.352865 0.271296 150 0 0
-0.055864 -0.355513 0.270929 150 0 0
-0.051359 -0.355411 0.272241 150 0 0
0.057206 -0.355880 0.270628 150 0 0
-0.072546 -0.351036 0.269939 150 0 0
-0.064479 -0.353102 0.269544 150 0 0
-0.055358 -0.350703 0.270572 150 0 0
0.058922 -0.353107 0.269639 150 0 0
0.065595 -0.352375 0.268314 150 0 0
-0.065901 -0.348394 0.269683 150 0 0
0.051606 -0.348704 0.269623 150 0 0
0.058450 -0.348912 0.268778 150 0 0
0.060688 -0.350043 0.269528 150 0 0
-0.076342 -0.347066 0.268686 150 0 0
-0.071704 -0.347338 0.267531 150 0 0
-0.067566 -0.347189 0.268712 150 0 0
0.069781 -0.346298 0.266466 150 0 0
-0.072358 -0.343499 0.266578 150 0 0
-0.069017 -0.343559 0.268014 150 0 0
-0.065763 -0.341688 0.267462 150 0 0
0.060536 -0.343701 0.268436 150 0 0
0.066390 -0.342534 0.266640 150 0 0
-0.075736 -0.339530 0.265844 150 0 0
0.061054 -0.339199 0.266374 150 0 0
0.065708 -0.339636 0.266828 150 0 0
0.074395 -0.339529 0.264197 150 0 0
-0.072371 -0.338023 0.265970 150 0 0
-0.080495 -0.334406 0.263738 150 0 0
-0.073232 -0.335455 0.265674 150 0 0
0.071155 -0.333263 0.264766 150 0 0
0.075267 -0.334992 0.263573 150 0 0
-0.080156 -0.331789 0.262298 150 0 0
-0.077664 -0.332087 0.263482 150 0 0
0.070279 -0.333202 0.263552 150 0 0
-0.083296 -0.328441 0.261201 150 0 0
-0.079148 -0.327974 0.262766 150 0 0
-0.077659 -0.328616 0.263367 150 0 0
0.074332 -0.328798 0.262179 150 0 0
0.079698 -0.329469 0.261690 150 0 0
0.075783 -0.327301 0.262419 150 0 0
0.080213 -0.325480 0.259427 150 0 0
0.082137 -0.325835 0.260978 150 0 0
-0.096567 -0.324104 0.259703 150 0 0
-0.087076 -0.322840 0.259837 150 0 0
-0.083912 -0.323548 0.260563 150 0 0
-0.080587 -0.324141 0.261466 150 0 0
0.080314 -0.320185 0.260442 150 0 0
0.090077 -0.319486 0.257869 150 0 0
-0.090865 -0.317197 0.257915 150 0 0
-0.087255 -0.317808 0.258070 150 0 0
0.080170 -0.318618 0.258912 150 0 0
0.084945 -0.317838 0.259433 150 0 0
-0.093844 -0.315608 0.256380 150 0 0
-0.091386 -0.314068 0.257328 150 0 0
-0.088304 -0.313521 0.258273 150 0 0
0.090793 -0.315737 0.256811 150 0 0
0.088897 -0.311991 0.256923 150 0 0
-0.097134 -0.308838 0.254491 150 0 0
-0.092089 -0.308513 0.255512 150 0 0
0.083688 -0.309985 0.256550 150 0 0
0.093939 -0.309260 0.255672 150 0 0
-0.098342 -0.306404 0.254373 150 0 0
-0.095121 -0.305043 0.255331 150 0 0
0.092940 -0.306094 0.255455 150 0 0
-0.098025 -0.303152 0.253874 150 0 0
0.086669 -0.302487 0.254646 150 0 0
0.096283 -0.303944 0.254016 150 0 0
-0.103986 -0.299526 0.251490 150 0 0
-0.100826 -0.300301 0.252454 150 0 0
0.098757 -0.301209 0.251703 150 0 0
-0.102639 -0.296568 0.251810 150 0 0
-0.108325 -0.294699 0.251846 150 0 0
0.098463 -0.295457 0.251844 150 0 0
-0.102719 -0.290924 0.249154 150 0 0
-0.101814 -0.292912 0.251762 150 0 0
0.097463 -0.291720 0.248705 150 0 0
0.100706 -0.291321 0.250031 150 0 0
-0.107207 -0.288900 0.249198 150 0 0
0.096937 -0.288395 0.248687 150 0 0
0.104423 -0.288219 0.247786 150 0 0
-0.105349 -0.287068 0.247712 150 0 0
0.095090 -0.284974 0.249285 150 0 0
0.101946 -0.286014 0.248940 150 0 0
-0.113766 -0.283907 0.247535 150 0 0
-0.109463 -0.282847 0.245613 150 0 0
0.104098 -0.284511 0.247802 150 0 0
0.105226 -0.282748 0.246781 150 0 0
-0.121524 -0.279662 0.244770 150 0 0
-0.114740 -0.280482 0.246042 150 0 0
-0.114167 -0.279233 0.245863 150 0 0
0.108771 -0.279877 0.245015 150 0 0
-0.117795 -0.276587 0.244377 150 0 0
0.108416 -0.277396 0.244922 150 0 0
0.103155 -0.275591 0.244845 150 0 0
0.105494 -0.274983 0.243702 150 0 0
0.109007 -0.273832 0.244320 150 0 0
-0.116144 -0.271583 0.244805 150 0 0
-0.111937 -0.270849 0.243535 150 0 0
-0.110308 -0.271927 0.244327 150 0 0
0.107496 -0.272723 0.242632 150 0 0
0.111562 -0.271921 0.242964 150 0 0
-0.122078 -0.268109 0.241200 150 0 0
-0.119406 -0.267635 0.242653 150 0 0
-0.112862 -0.268881 0.242971 150 0 0
0.112310 -0.267183 0.242288 150 0 0
-0.120396 -0.263569 0.241852 150 0 0
-0.113880 -0.263595 0.242134 150 0 0
0.109725 -0.262759 0.241050 150 0 0
-0.128246 -0.260697 0.240217 150 0 0
-0.122431 -0.259097 0.240402 150 0 0
0.106133 -0.260106 0.241139 150 0 0
0.114632 -0.259420 0.240583 150 0 0
-0.130139 -0.258992 0.238713 150 0 0
-0.124964 -0.257673 0.237947 150 0 0
-0.120392 -0.256184 0.239500 150 0 0
0.111172 -0.257223 0.240072 150 0 0
0.116762 -0.257068 0.238964 150 0 0
-0.132767 -0.254759 0.237807 150 0 0
-0.131827 -0.253326 0.238075 150 0 0
0.119570 -0.254039 0.237688 150 0 0
-0.125136 -0.251909 0.237391 150 0 0
0.121295 -0.251000 0.236844 150 0 0
-0.136997 -0.248446 0.234586 150 0 0
-0.128670 -0.249606 0.235639 150 0 0
0.120200 -0.249134 0.237159 150 0 0
-0.131740 -0.246499 0.234562 150 0 0
0.122158 -0.247327 0.234331 150 0 0
0.122503 -0.247042 0.234369 150 0 0
0.125887 -0.245910 0.234244 150 0 0
-0.137909 -0.244773 0.233696 150 0 0
-0.133677 -0.242756 0.233408 150 0 0
0.121265 -0.241965 0.234376 150 0 0
0.123285 -0.242826 0.233596 150 0 0
-0.134270 -0.239353 0.232754 150 0 0
-0.131710 -0.241380 0.234282 150 0 0
-0.129391 -0.239616 0.232832 150 0 0
0.124563 -0.240542 0.233198 150 0 0
-0.129745 -0.236906 0.232416 150 0 0
0.127211 -0.237061 0.231322 150 0 0
-0.138913 -0.232801 0.230580 150 0 0
-0.136873 -0.231610 0.230849 150 0 0
0.128118 -0.232315 0.229698 150 0 0
-0.137034 -0.230351 0.230541 150 0 0
-0.135351 -0.229594 0.228495 150 0 0
0.131006 -0.229133 0.228547 150 0 0
0.132601 -0.225403 0.227359 150 0 0
-0.134469 -0.221787 0.228434 150 0 0
0.126839 -0.223680 0.229062 150 0 0
0.130019 -0.223959 0.228663 150 0 0
0.132662 -0.222255 0.227758 150 0 0
0.135532 -0.223543 0.228048 150 0 0
-0.140860 -0.221535 0.228131 150 0 0
0.136769 -0.219266 0.226965 150 0 0
-0.144126 -0.217353 0.225992 150 0 0
-0.140517 -0.218259 0.226257 150 0 0
-0.145791 -0.213689 0.224883 150 0 0
-0.142122 -0.214332 0.223334 150 0 0
0.139122 -0.215993 0.224037 150 0 0
0.137509 -0.213038 0.223864 150 0 0
-0.149979 -0.210444 0.223077 150 0 0
-0.146677 -0.209918 0.224563 150 0 0
0.139442 -0.210046 0.224632 150 0 0
0.141919 -0.208756 0.222987 150 0 0
-0.150112 -0.205863 0.222828 150 0 0
0.138792 -0.206948 0.222560 150 0 0
-0.154784 -0.202597 0.219910 150 0 0
-0.152521 -0.204501 0.221668 150 0 0
-0.147889 -0.200818 0.219206 150 0 0
0.138416 -0.199209 0.221002 150 0 0
0.140745 -0.200284 0.220696 150 0 0
-0.152783 -0.198007 0.220369 150 0 0
-0.144659 -0.197331 0.220830 150 0 0
0.142759 -0.194296 0.219880 150 0 0
0.143664 -0.195800 0.219020 150 0 0
-0.157032 -0.190325 0.218504 150 0 0
-0.154198 -0.192319 0.219259 150 0 0
-0.147968 -0.192561 0.218537 150 0 0
-0.157880 -0.189503 0.217306 150 0 0
-0.152428 -0.189309 0.215704 150 0 0
0.148623 -0.190144 0.216097 150 0 0
-0.161386 -0.187423 0.215043 150 0 0
-0.153726 -0.185285 0.214758 150 0 0
0.149200 -0.183961 0.215569 150 0 0
0.153220 -0.184695 0.214772 150 0 0
-0.162139 -0.180250 0.214633 150 0 0
-0.154516 -0.182153 0.214163 150 0 0
0.152333 -0.179356 0.214914 150 0 0
-0.165558 -0.175453 0.211915 150 0 0
-0.157298 -0.173428 0.212171 150 0 0
0.153940 -0.175526 0.213683 150 0 0
-0.168311 -0.168659 0.210393 150 0 0
0.156553 -0.169523 0.211108 150 0 0
0.154724 -0.166623 0.209660 150 0 0
-0.164378 -0.164650 0.207689 150 0 0
0.160789 -0.161059 0.207823 150 0 0
0.160668 -0.157441 0.205781 150 0 0
-0.168612 -0.152834 0.204719 150 0 0
0.164143 -0.152460 0.204255 150 0 0
0.169340 -0.151932 0.203294 150 0 0
-0.176195 -0.149085 0.204503 150 0 0
0.166901 -0.147973 0.204726 150 0 0
-0.178576 -0.145269 0.202523 150 0 0
0.163937 -0.144967 0.203585 150 0 0
0.171188 -0.145609 0.202005 150 0 0
-0.170962 -0.144300 0.203057 150 0 0
0.167914 -0.144952 0.201092 150 0 0
0.171347 -0.144647 0.200897 150 0 0
-0.174470 -0.141800 0.200324 150 0 0
0.164556 -0.141415 0.201748 150 0 0
0.167513 -0.140424 0.201628 150 0 0
0.171343 -0.138370 0.201694 150 0 0
0.175647 -0.137532 0.198894 150 0 0
-0.183049 -0.135114 0.198979 150 0 0
-0.185010 -0.132886 0.199347 150 0 0
-0.186437 -0.128546 0.197147 150 0 0
0.170710 -0.130235 0.198954 150 0 0
-0.184231 -0.126071 0.197704 150 0 0
-0.178896 -0.125276 0.196672 150 0 0
0.174667 -0.120758 0.194293 150 0 0
-0.191684 -0.115413 0.191503 150 0 0
0.184091 -0.112244 0.192575 150 0 0
0.186003 -0.113348 0.190712 150 0 0
0.181191 -0.109184 0.192210 150 0 0
0.186643 -0.106578 0.190884 150 0 0
-0.200676 -0.104290 0.189395 150 0 0
-0.197264 -0.103580 0.189338 150 0 0
0.190682 -0.102559 0.187898 150 0 0
0.191383 -0.100741 0.187184 150 0 0
-0.200400 -0.099084 0.187259 150 0 0
-0.190967 -0.098475 0.187425 150 0 0
-0.205418 -0.094486 0.185809 150 0 0
-0.191864 -0.095353 0.186861 150 0 0
0.194270 -0.096755 0.185339 150 0 0
-0.201891 -0.093914 0.184450 150 0 0
-0.202363 -0.090426 0.183071 150 0 0
-0.208514 -0.086578 0.183372 150 0 0
-0.208376 -0.079756 0.180237 150 0 0
-0.211966 -0.076084 0.178867 150 0 0
-0.217975 -0.068048 0.176179 150 0 0
-0.214155 -0.067763 0.176052 150 0 0
-0.219356 -0.063732 0.177458 150 0 0
0.216461 -0.062483 0.176756 150 0 0
0.218391 -0.060590 0.175362 150 0 0
0.224395 -0.051346 0.172766 150 0 0
-0.228282 -0.051125 0.170491 150 0 0
0.225498 -0.050325 0.170480 150 0 0
0.237710 -0.028542 0.163085 150 0 0
-0.241285 -0.027954 0.163890 150 0 0
0.242688 -0.016875 0.161876 150 0 0
0.245694 -0.014216 0.159826 150 0 0
0.245953 -0.012267 0.160429 150 0 0
0.246703 -0.010482 0.159308 150 0 0
0.249217 -0.006373 0.155831 150 0 0
0.250380 -0.001123 0.156362 150 0 0
-0.257265 0.009544 0.151134 150 0 0
0.258291 0.015762 0.149108 150 0 0
0.261680 0.024716 0.147248 150 0 0
0.263757 0.029822 0.145588 150 0 0
0.270005 0.061508 0.134398 150 0 0
0.277746 0.097501 0.124999 150 0 0
0.278249 0.098055 0.121945 150 0 0
0.279551 0.110743 0.119149 150 0 0
0.280230 0.119137 0.117665 150 0 0
0.280399 0.124593 0.115696 150 0 0
0.281126 0.155322 0.104973 150 0 0
0.280290 0.180933 0.095428 150 0 0
0.280984 0.188419 0.093491 150 0 0
0.278759 0.196706 0.089988 150 0 0
0.279452 0.210392 0.087889 150 0 0
0.274566 0.240021 0.077403 150 0 0
0.266621 0.276266 0.064727 150 0 0
0.264170 0.281740 0.062218 150 0 0
0.260484 0.297247 0.059044 150 0 0
-0.257080 0.309585 0.056159 150 0 0
0.254734 0.318903 0.050873 150 0 0
0.254828 0.323002 0.049047 150 0 0
0.252297 0.326007 0.047762 150 0 0
-0.244306 0.338182 0.045622 150 0 0
0.237145 0.362496 0.036735 150 0 0
-0.226820 0.398679 0.026885 150 0 0
-0.199402 0.429960 0.014588 150 0 0
0.163227 0.468048 0.003715 150 0 0
-0.155410 0.471149 0.001579 150 0 0
0.153740 0.471996 0.000489 150 0 0
0.146311 0.476661 0.000163 150 0 0
0.123974 0.489498 -0.005000 150 0 0
-0.120734 0.491018 -0.005417 150 0 0
-0.015626 -0.384548 0.281916 150 0 0
-0.004499 -0.385080 0.281973 150 0 0
-0.016012 -0.381126 0.281969 150 0 0
-0.030636 -0.380046 0.281195 150 0 0
-0.025894 -0.380860 0.281241 150 0 0
-0.019384 -0.380512 0.281123 150 0 0
-0.018194 -0.379515 0.281063 150 0 0
-0.008356 -0.378126 0.281344 150 0 0
-0.004528 -0.379753 0.280970 150 0 0
-0.001465 -0.380720 0.281389 150 0 0
0.010962 -0.379614 0.280879 150 0 0
0.013995 -0.380087 0.280722 150 0 0
0.020703 -0.380266 0.280442 150 0 0
-0.034333 -0.375435 0.280784 150 0 0
-0.025725 -0.375676 0.279680 150 0 0
-0.023857 -0.377207 0.279418 150 0 0
-0.020138 -0.376734 0.280721 150 0 0
-0.013943 -0.376773 0.280392 150 0 0
-0.012277 -0.377796 0.281793 150 0 0
-0.004903 -0.377384 0.279935 150 0 0
-0.003254 -0.375902 0.280623 150 0 0
0.002101 -0.376061 0.279722 150 0 0
0.004883 -0.375432 0.280106 150 0 0
0.006484 -0.376373 0.279686 150 0 0
0.011668 -0.376225 0.279601 150 0 0
0.016900 -0.375546 0.280456 150 0 0
0.018715 -0.375501 0.279441 150 0 0
0.021733 -0.377188 0.279832 150 0 0
0.028263 -0.375796 0.279323 150 0 0
0.030548 -0.377277 0.279380 150 0 0
-0.044124 -0.374764 0.278808 150 0 0
-0.032347 -0.374075 0.279579 150 0 0
-0.026904 -0.372621 0.280424 150 0 0
-0.020856 -0.374741 0.281082 150 0 0
-0.015612 -0.374502 0.279801 150 0 0
-0.010927 -0.374816 0.280800 150 0 0
-0.005314 -0.373160 0.280101 150 0 0
0.001630 -0.373245 0.280021 150 0 0
0.016167 -0.374607 0.279493 150 0 0
0.020822 -0.375270 0.279061 150 0 0
0.034575 -0.374835 0.279451 150 0 0
-0.031373 -0.372072 0.278257 150 0 0
-0.028077 -0.370463 0.278988 150 0 0
-0.023537 -0.370043 0.279469 150 0 0
-0.020665 -0.371434 0.279508 150 0 0
-0.016146 -0.371459 0.280133 150 0 0
-0.013248 -0.369938 0.279273 150 0 0
-0.012381 -0.371985 0.279472 150 0 0
-0.007822 -0.370355 0.279874 150 0 0
0.003530 -0.370088 0.280046 150 0 0
0.007953 -0.369507 0.279598 150 0 0
0.011278 -0.369716 0.279633 150 0 0
0.016592 -0.371108 0.279508 150 0 0
0.019256 -0.370349 0.279922 150 0 0
0.025248 -0.369854 0.278386 150 0 0
0.030881 -0.370555 0.278055 150 0 0
-0.039343 -0.367957 0.279137 150 0 0
-0.034184 -0.367473 0.276849 150 0 0
-0.031416 -0.367696 0.277193 150 0 0
-0.029371 -0.368527 0.277640 150 0 0
-0.017027 -0.368471 0.279180 150 0 0
-0.001254 -0.367801 0.278921 150 0 0
0.003411 -0.367037 0.279125 150 0 0
0.011709 -0.366915 0.278763 150 0 0
0.014867 -0.368438 0.279325 150 0 0
0.021954 -0.367618 0.278748 150 0 0
0.028889 -0.368803 0.277302 150 0 0
0.032287 -0.367311 0.278202 150 0 0
0.035704 -0.369266 0.278357 150 0 0
-0.041763 -0.364751 0.278271 150 0 0
-0.035843 -0.364885 0.276234 150 0 0
0.026481 -0.366228 0.278457 150 0 0
0.032169 -0.363841 0.277649 150 0 0
0.039887 -0.364208 0.275792 150 0 0
0.043152 -0.364071 0.276117 150 0 0
-0.044475 -0.363419 0.275197 150 0 0
-0.041072 -0.363950 0.275755 150 0 0
-0.039208 -0.361145 0.275125 150 0 0
0.034532 -0.362931 0.276190 150 0 0
-0.046926 -0.359377 0.273877 150 0 0
-0.040833 -0.359320 0.275362 150 0 0
-0.036158 -0.360168 0.276012 150 0 0
0.038834 -0.359790 0.276088 150 0 0
0.046378 -0.359900 0.275041 150 0 0
0.049108 -0.358940 0.274204 150 0 0
-0.059684 -0.356598 0.273403 150 0 0
-0.043511 -0.356373 0.274388 150 0 0
-0.040024 -0.355416 0.274547 150 0 0
-0.038078 -0.356650 0.274935 150 0 0
-0.036298 -0.356341 0.275277 150 0 0
-0.056799 -0.353660 0.271970 150 0 0
-0.047150 -0.353883 0.273394 150 0 0
-0.043076 -0.354603 0.274941 150 0 0
0.035030 -0.352250 0.274196 150 0 0
0.045468 -0.352665 0.273145 150 0 0
0.050074 -0.355412 0.272753 150 0 0
-0.052404 -0.350629 0.272836 150 0 0
-0.048972 -0.350717 0.272564 150 0 0
0.045273 -0.349383 0.272861 150 0 0
0.052256 -0.352164 0.271304 150 0 0
0.055507 -0.352281 0.271685 150 0 0
-0.061518 -0.349175 0.270255 150 0 0
-0.058172 -0.348917 0.270200 150 0 0
-0.053573 -0.348463 0.271240 150 0 0
-0.047074 -0.346992 0.272357 150 0 0
0.050416 -0.347722 0.272019 150 0 0
-0.056568 -0.345840 0.269849 150 0 0
0.050359 -0.344255 0.269527 150 0 0
0.054919 -0.343937 0.270754 150 0 0
-0.059224 -0.343489 0.270185 150 0 0
-0.055323 -0.341094 0.270659 150 0 0
-0.052693 -0.340778 0.270207 150 0 0
0.050249 -0.342141 0.269372 150 0 0
0.056636 -0.343170 0.269224 150 0 0
-0.074620 -0.340028 0.268449 150 0 0
-0.063887 -0.338236 0.269490 150 0 0
-0.059439 -0.339678 0.270015 150 0 0
0.048974 -0.340763 0.269595 150 0 0
0.052996 -0.339294 0.269836 150 0 0
0.057012 -0.338172 0.269486 150 0 0
0.061324 -0.340063 0.267693 150 0 0
-0.065450 -0.336296 0.267683 150 0 0
0.054247 -0.336799 0.269300 150 0 0
0.059739 -0.336406 0.268730 150 0 0
0.063278 -0.337791 0.266990 150 0 0
-0.061459 -0.332700 0.267543 150 0 0
-0.058874 -0.334709 0.268293 150 0 0
0.059705 -0.333782 0.267606 150 0 0
0.062529 -0.333791 0.266345 150 0 0
0.068618 -0.333263 0.265916 150 0 0
-0.084708 -0.330275 0.265246 150 0 0
-0.073990 -0.330331 0.264630 150 0 0
-0.070670 -0.327179 0.265034 150 0 0
-0.069456 -0.328085 0.266237 150 0 0
0.060693 -0.326685 0.265524 150 0 0
0.064367 -0.328073 0.265890 150 0 0
0.070727 -0.328304 0.264279 150 0 0
0.072184 -0.327451 0.263626 150 0 0
-0.073109 -0.324796 0.264760 150 0 0
0.069929 -0.325242 0.263043 150 0 0
0.071638 -0.325167 0.263293 150 0 0
0.075930 -0.324658 0.262572 150 0 0
-0.077517 -0.323294 0.263152 150 0 0
0.070232 -0.321960 0.263269 150 0 0
0.073826 -0.322304 0.263395 150 0 0
-0.080146 -0.320447 0.261822 150 0 0
-0.076886 -0.320277 0.262997 150 0 0
-0.075282 -0.318010 0.263119 150 0 0
0.077485 -0.320184 0.261742 150 0 0
-0.083293 -0.317172 0.260246 150 0 0
0.081289 -0.316489 0.260416 150 0 0
-0.078557 -0.314072 0.261740 150 0 0
0.079033 -0.313628 0.260685 150 0 0
-0.084898 -0.310012 0.259458 150 0 0
-0.081572 -0.312052 0.260285 150 0 0
0.078733 -0.309708 0.260454 150 0 0
0.084707 -0.311674 0.258627 150 0 0
-0.098208 -0.309148 0.257620 150 0 0
-0.085236 -0.307193 0.257929 150 0 0
0.083658 -0.307932 0.259087 150 0 0
0.087966 -0.308832 0.257597 150 0 0
-0.087193 -0.303953 0.256825 150 0 0
0.082417 -0.306637 0.256979 150 0 0
0.086122 -0.305506 0.258200 150 0 0
0.084799 -0.302027 0.256847 150 0 0
-0.097321 -0.298635 0.253839 150 0 0
-0.092020 -0.299336 0.254407 150 0 0
0.081083 -0.299861 0.257067 150 0 0
0.090617 -0.299323 0.255448 150 0 0
-0.096665 -0.296299 0.253681 150 0 0
-0.093249 -0.297149 0.255352 150 0 0
-0.088987 -0.297378 0.256153 150 0 0
0.086759 -0.295916 0.254080 150 0 0
0.094298 -0.296461 0.254146 150 0 0
-0.099464 -0.295411 0.252913 150 0 0
-0.093207 -0.293553 0.253392 150 0 0
0.092646 -0.293679 0.253942 150 0 0
-0.098677 -0.292134 0.252609 150 0 0
-0.094779 -0.290234 0.253286 150 0 0
0.087907 -0.292411 0.253260 150 0 0
0.092051 -0.290587 0.253949 150 0 0
0.095565 -0.291201 0.252319 150 0 0
-0.103113 -0.288188 0.250935 150 0 0
-0.097691 -0.289423 0.251145 150 0 0
-0.103391 -0.284617 0.250542 150 0 0
-0.096712 -0.285812 0.251246 150 0 0
0.096553 -0.285525 0.251658 150 0 0
-0.099814 -0.282967 0.251623 150 0 0
-0.105139 -0.280358 0.248387 150 0 0
-0.102274 -0.279252 0.250565 150 0 0
-0.110153 -0.278493 0.247674 150 0 0
-0.106845 -0.277815 0.248750 150 0 0
0.092502 -0.277721 0.250021 150 0 0
-0.110337 -0.275168 0.246833 150 0 0
0.095491 -0.273811 0.248395 150 0 0
-0.112461 -0.271853 0.246350 150 0 0
0.099223 -0.270221 0.245136 150 0 0
0.104524 -0.269705 0.246088 150 0 0
-0.119248 -0.267203 0.244572 150 0 0
-0.112192 -0.267618 0.246690 150 0 0
0.099217 -0.269322 0.246389 150 0 0
0.102869 -0.267267 0.244545 150 0 0
0.106328 -0.266755 0.245177 150 0 0
0.109081 -0.267454 0.243880 150 0 0
-0.117817 -0.266194 0.243302 150 0 0
-0.112255 -0.263878 0.245631 150 0 0
-0.122830 -0.264175 0.242788 150 0 0
-0.109941 -0.261282 0.243550 150 0 0
0.103596 -0.262185 0.243933 150 0 0
0.105000 -0.263566 0.243338 150 0 0
0.110632 -0.263706 0.242608 150 0 0
-0.119673 -0.260263 0.242251 150 0 0
-0.116484 -0.259859 0.243815 150 0 0
0.108244 -0.255775 0.242730 150 0 0
0.111237 -0.252699 0.240856 150 0 0
-0.123108 -0.252835 0.239131 150 0 0
-0.117373 -0.251416 0.241092 150 0 0
0.110972 -0.251935 0.239778 150 0 0
0.113846 -0.250428 0.240217 150 0 0
-0.123017 -0.249019 0.238914 150 0 0
0.113372 -0.248053 0.238378 150 0 0
0.119162 -0.247321 0.237468 150 0 0
-0.126605 -0.246317 0.237152 150 0 0
0.109477 -0.243801 0.238357 150 0 0
0.115352 -0.245949 0.239116 150 0 0
-0.130405 -0.243123 0.237287 150 0 0
-0.125954 -0.243741 0.237801 150 0 0
-0.128223 -0.241020 0.236260 150 0 0
-0.125535 -0.240229 0.236957 150 0 0
0.114565 -0.239125 0.237293 150 0 0
0.117079 -0.238773 0.237162 150 0 0
-0.124497 -0.236858 0.235533 150 0 0
0.122730 -0.235961 0.234941 150 0 0
-0.132609 -0.233409 0.233223 150 0 0
0.121662 -0.232296 0.235207 150 0 0
-0.137764 -0.229868 0.232619 150 0 0
-0.131115 -0.230981 0.233357 150 0 0
0.125738 -0.229953 0.233155 150 0 0
0.122976 -0.226682 0.232785 150 0 0
-0.138795 -0.225266 0.231594 150 0 0
-0.134870 -0.224148 0.231417 150 0 0
0.124065 -0.224873 0.232123 150 0 0
0.125961 -0.226299 0.231350 150 0 0
0.130169 -0.226424 0.230831 150 0 0
-0.138908 -0.222744 0.229182 150 0 0
-0.135816 -0.217874 0.230512 150 0 0
0.129630 -0.219999 0.229739 150 0 0
0.133692 -0.218843 0.228096 150 0 0
-0.138440 -0.216113 0.229018 150 0 0
-0.131777 -0.217210 0.229721 150 0 0
0.126706 -0.215980 0.230090 150 0 0
-0.134377 -0.213633 0.227913 150 0 0
0.130070 -0.212630 0.228224 150 0 0
0.134591 -0.215275 0.228026 150 0 0
-0.143829 -0.211444 0.226833 150 0 0
-0.141045 -0.210356 0.227347 150 0 0
0.135788 -0.210867 0.226976 150 0 0
0.131965 -0.208777 0.226362 150 0 0
-0.142687 -0.205105 0.226439 150 0 0
-0.140223 -0.205878 0.224052 150 0 0
0.138484 -0.206645 0.224236 150 0 0
0.135673 -0.202121 0.224670 150 0 0
-0.146054 -0.200550 0.224208 150 0 0
0.136914 -0.199975 0.223191 150 0 0
-0.149667 -0.196889 0.222269 150 0 0
0.135978 -0.196855 0.223822 150 0 0
0.143181 -0.197323 0.221646 150 0 0
-0.149006 -0.193939 0.221987 150 0 0
0.139487 -0.194799 0.222959 150 0 0
0.142314 -0.192642 0.221267 150 0 0
-0.152924 -0.190599 0.219862 150 0 0
0.136058 -0.191639 0.222009 150 0 0
-0.154827 -0.188023 0.218762 150 0 0
-0.156954 -0.186327 0.217637 150 0 0
0.147691 -0.186984 0.218228 150 0 0
0.148912 -0.182357 0.217177 150 0 0
-0.147562 -0.179948 0.218073 150 0 0
0.145139 -0.179706 0.217713 150 0 0
0.148412 -0.176511 0.215622 150 0 0
0.149735 -0.177408 0.216340 150 0 0
0.146662 -0.173886 0.215865 150 0 0
0.152282 -0.167503 0.212705 150 0 0
-0.163215 -0.164987 0.213125 150 0 0
0.153780 -0.164524 0.213285 150 0 0
-0.164010 -0.163114 0.212092 150 0 0
-0.157369 -0.162598 0.211467 150 0 0
0.157784 -0.162146 0.210729 150 0 0
0.159575 -0.162195 0.209642 150 0 0
0.155987 -0.160318 0.211806 150 0 0
-0.168938 -0.156764 0.209287 150 0 0
-0.171014 -0.155061 0.209139 150 0 0
0.154635 -0.153265 0.208919 150 0 0
0.159222 -0.155502 0.207634 150 0 0
-0.172138 -0.152826 0.206727 150 0 0
0.159334 -0.151442 0.206491 150 0 0
0.163788 -0.146490 0.206599 150 0 0
-0.167637 -0.141670 0.204785 150 0 0
0.160339 -0.141265 0.205014 150 0 0
0.161865 -0.135871 0.203090 150 0 0
0.166093 -0.133644 0.202022 150 0 0
0.169946 -0.134311 0.201115 150 0 0
-0.181193 -0.132446 0.201915 150 0 0
-0.179341 -0.132633 0.201254 150 0 0
-0.174081 -0.130502 0.200263 150 0 0
-0.182023 -0.124617 0.198894 150 0 0
-0.185111 -0.121774 0.197693 150 0 0
-0.175513 -0.123682 0.199146 150 0 0
0.177089 -0.122135 0.197593 150 0 0
-0.186425 -0.118417 0.196827 150 0 0
0.178545 -0.114157 0.196178 150 0 0
-0.191896 -0.110374 0.195122 150 0 0
-0.180897 -0.110484 0.194952 150 0 0
0.183014 -0.110352 0.192983 150 0 0
-0.196363 -0.107353 0.192210 150 0 0
0.177561 -0.108217 0.194821 150 0 0
0.180212 -0.106638 0.192889 150 0 0
0.182983 -0.104380 0.192467 150 0 0
-0.193935 -0.102450 0.192794 150 0 0
0.184892 -0.101075 0.192185 150 0 0
-0.195999 -0.098512 0.190869 150 0 0
-0.193876 -0.101157 0.190269 150 0 0
0.187404 -0.098724 0.191852 150 0 0
0.186225 -0.097700 0.190065 150 0 0
-0.199017 -0.089745 0.188530 150 0 0
-0.197666 -0.091795 0.187499 150 0 0
-0.192353 -0.091296 0.186653 150 0 0
0.195280 -0.089912 0.187563 150 0 0
-0.203476 -0.088908 0.186341 150 0 0
0.203119 -0.080368 0.184812 150 0 0
0.203832 -0.080676 0.183818 150 0 0
0.205850 -0.077256 0.182727 150 0 0
-0.212392 -0.073541 0.181032 150 0 0
0.208778 -0.073693 0.181684 150 0 0
0.211606 -0.068084 0.181937 150 0 0
-0.217496 -0.061189 0.177578 150 0 0
-0.222390 -0.054211 0.175201 150 0 0
0.222128 -0.053989 0.175380 150 0 0
0.226263 -0.048258 0.173573 150 0 0
-0.228389 -0.043615 0.173626 150 0 0
0.230247 -0.040255 0.172328 150 0 0
0.232490 -0.036090 0.170086 150 0 0
0.234116 -0.032988 0.170308 150 0 0
0.235216 -0.030760 0.169529 150 0 0
-0.244581 -0.022449 0.165831 150 0 0
0.239297 -0.023719 0.167259 150 0 0
0.239836 -0.024453 0.164855 150 0 0
-0.256646 0.007452 0.156984 150 0 0
0.258402 0.017622 0.151370 150 0 0
0.258964 0.019165 0.151288 150 0 0
0.268193 0.055602 0.139780 150 0 0
0.275981 0.086810 0.131318 150 0 0
0.276893 0.088651 0.128115 150 0 0
0.279016 0.105873 0.123814 150 0 0
0.279870 0.117917 0.120469 150 0 0
0.280989 0.118316 0.118747 150 0 0
0.280373 0.129390 0.115342 150 0 0
0.281316 0.130116 0.115027 150 0 0
0.280599 0.139189 0.111973 150 0 0
0.281632 0.142515 0.111345 150 0 0
0.280562 0.160499 0.105888 150 0 0
0.280847 0.166635 0.105752 150 0 0
0.279715 0.185588 0.098605 150 0 0
0.278876 0.190473 0.097918 150 0 0
0.270275 0.266916 0.071434 150 0 0
0.263774 0.290051 0.065240 150 0 0
0.264199 0.294308 0.061705 150 0 0
0.262758 0.300579 0.060209 150 0 0
-0.251890 0.324679 0.052424 150 0 0
0.248809 0.342905 0.045366 150 0 0
0.247658 0.346293 0.044446 150 0 0
-0.240240 0.350472 0.044926 150 0 0
0.244961 0.353156 0.043192 150 0 0
0.239087 0.367296 0.038145 150 0 0
-0.223645 0.387431 0.032317 150 0 0
0.230080 0.388034 0.031896 150 0 0
-0.212200 0.407252 0.025612 150 0 0
-0.157965 0.472169 0.004401 150 0 0
0.148059 0.478102 0.002646 150 0 0
0.132958 0.485032 0.001008 150 0 0
-0.125205 0.488746 -0.001067 150 0 0
0.126440 0.488196 -0.001756 150 0 0
-0.125233 0.490473 -0.000123 150 0 0
-0.115043 0.494042 -0.001231 150 0 0
0.110381 0.495690 -0.001195 150 0 0
-0.100329 0.500658 -0.003422 150 0 0
-0.092719 0.502470 -0.005164 150 0 0
0.084799 0.505495 -0.005475 150 0 0
0.074905 0.506905 -0.007583 150 0 0
-0.007920 -0.369224 0.280011 150 0 0
-0.021046 -0.366345 0.279788 150 0 0
-0.010174 -0.368670 0.280864 150 0 0
-0.007523 -0.368188 0.280417 150 0 0
0.009399 -0.367707 0.279789 150 0 0
-0.031024 -0.365511 0.279750 150 0 0
-0.023359 -0.365348 0.278952 150 0 0
-0.019754 -0.364493 0.279280 150 0 0
-0.017369 -0.363073 0.279454 150 0 0
-0.012635 -0.362917 0.279418 150 0 0
-0.010190 -0.364164 0.278660 150 0 0
-0.008410 -0.364833 0.280124 150 0 0
-0.003273 -0.365396 0.279924 150 0 0
0.000533 -0.363800 0.278884 150 0 0
0.004738 -0.364741 0.279459 150 0 0
0.008488 -0.365314 0.278837 150 0 0
0.013450 -0.363926 0.279403 150 0 0
0.017846 -0.363483 0.278686 150 0 0
-0.029359 -0.361524 0.277732 150 0 0
-0.025977 -0.362068 0.278518 150 0 0
-0.020356 -0.362157 0.278569 150 0 0
-0.016751 -0.361303 0.279074 150 0 0
-0.013331 -0.360944 0.280221 150 0 0
-0.005197 -0.361521 0.279385 150 0 0
-0.001881 -0.360060 0.279625 150 0 0
0.007483 -0.362143 0.278266 150 0 0
0.010855 -0.360198 0.278527 150 0 0
0.014076 -0.361012 0.278538 150 0 0
0.014642 -0.361930 0.278259 150 0 0
0.019578 -0.362629 0.279119 150 0 0
0.023006 -0.361900 0.278050 150 0 0
0.026071 -0.360407 0.277250 150 0 0
0.029643 -0.360830 0.277866 150 0 0
-0.036160 -0.357494 0.278821 150 0 0
-0.020958 -0.359931 0.278248 150 0 0
-0.014431 -0.358375 0.278666 150 0 0
-0.004299 -0.357299 0.277899 150 0 0
0.000876 -0.358540 0.279113 150 0 0
0.005182 -0.357574 0.278130 150 0 0
0.020258 -0.359060 0.278612 150 0 0
0.021102 -0.357277 0.277865 150 0 0
0.027651 -0.359090 0.277748 150 0 0
0.032675 -0.359658 0.276913 150 0 0
0.035616 -0.358679 0.276489 150 0 0
-0.038528 -0.354377 0.277976 150 0 0
-0.028953 -0.356301 0.277121 150 0 0
-0.026769 -0.354685 0.277015 150 0 0
-0.021837 -0.356923 0.278072 150 0 0
-0.019208 -0.356480 0.278715 150 0 0
-0.001685 -0.355709 0.277709 150 0 0
0.000940 -0.354752 0.278117 150 0 0
0.014331 -0.356838 0.278186 150 0 0
0.016097 -0.356851 0.277529 150 0 0
0.017444 -0.354748 0.277611 150 0 0
0.029332 -0.357091 0.276106 150 0 0
0.033615 -0.356032 0.276570 150 0 0
0.036895 -0.355063 0.276882 150 0 0
-0.031804 -0.351539 0.275813 150 0 0
0.007769 -0.353716 0.277403 150 0 0
0.014328 -0.352241 0.277177 150 0 0
0.023136 -0.352331 0.276692 150 0 0
0.024005 -0.353567 0.277386 150 0 0
0.034476 -0.351663 0.276915 150 0 0
0.037102 -0.353308 0.277218 150 0 0
0.042039 -0.353962 0.275892 150 0 0
-0.049105 -0.350858 0.275231 150 0 0
-0.040439 -0.349091 0.274181 150 0 0
-0.037008 -0.350641 0.274594 150 0 0
-0.034306 -0.349496 0.275032 150 0 0
-0.030453 -0.349032 0.276250 150 0 0
0.028019 -0.351130 0.275886 150 0 0
0.033580 -0.349715 0.275160 150 0 0
0.040411 -0.351589 0.275178 150 0 0
0.043741 -0.350330 0.274888 150 0 0
-0.052162 -0.348223 0.274278 150 0 0
-0.042991 -0.347381 0.272958 150 0 0
-0.036481 -0.347315 0.275463 150 0 0
0.030662 -0.348191 0.274936 150 0 0
0.036489 -0.346572 0.275504 150 0 0
0.040344 -0.346213 0.273833 150 0 0
0.043041 -0.346098 0.274607 150 0 0
0.046650 -0.347365 0.273473 150 0 0
-0.050714 -0.343717 0.272121 150 0 0
-0.046284 -0.343708 0.272580 150 0 0
-0.043679 -0.344878 0.273900 150 0 0
-0.040597 -0.344384 0.273995 150 0 0
-0.036606 -0.344091 0.274379 150 0 0
0.036316 -0.343470 0.273051 150 0 0
0.046267 -0.344921 0.273499 150 0 0
-0.055251 -0.342906 0.271632 150 0 0
-0.040060 -0.342037 0.273034 150 0 0
0.039147 -0.341742 0.273713 150 0 0
0.045269 -0.341913 0.272502 150 0 0
0.049805 -0.341133 0.271527 150 0 0
-0.066007 -0.339557 0.270310 150 0 0
-0.061712 -0.338838 0.271189 150 0 0
-0.053128 -0.338504 0.273057 150 0 0
-0.050087 -0.338399 0.270548 150 0 0
-0.056240 -0.337294 0.270597 150 0 0
-0.054279 -0.336827 0.270739 150 0 0
-0.047325 -0.335799 0.271588 150 0 0
0.038415 -0.335628 0.271921 150 0 0
0.050072 -0.334505 0.271018 150 0 0
0.050659 -0.336996 0.270262 150 0 0
-0.065143 -0.332402 0.268273 150 0 0
-0.056489 -0.331954 0.269457 150 0 0
-0.052801 -0.333113 0.270119 150 0 0
-0.049758 -0.331493 0.269930 150 0 0
0.054656 -0.332437 0.269297 150 0 0
-0.073223 -0.330290 0.267791 150 0 0
-0.058972 -0.330166 0.267828 150 0 0
0.053061 -0.328985 0.267658 150 0 0
0.055185 -0.329598 0.269559 150 0 0
-0.064860 -0.327646 0.267089 150 0 0
-0.057466 -0.327677 0.269060 150 0 0
0.051648 -0.327225 0.267888 150 0 0
0.054659 -0.327389 0.268359 150 0 0
0.056950 -0.327442 0.268400 150 0 0
-0.079635 -0.324313 0.265777 150 0 0
-0.077668 -0.323498 0.266132 150 0 0
-0.060139 -0.324934 0.268032 150 0 0
0.058755 -0.323360 0.267858 150 0 0
0.061045 -0.324092 0.266400 150 0 0
-0.071520 -0.321912 0.265154 150 0 0
-0.067821 -0.321635 0.266654 150 0 0
0.062750 -0.321044 0.265663 150 0 0
0.066616 -0.322476 0.264822 150 0 0
-0.067127 -0.317055 0.265595 150 0 0
-0.060310 -0.318754 0.266428 150 0 0
0.064868 -0.320104 0.263956 150 0 0
0.065458 -0.318331 0.264681 150 0 0
0.068983 -0.318920 0.263867 150 0 0
-0.083585 -0.317308 0.264206 150 0 0
-0.077746 -0.316268 0.262885 150 0 0
-0.071906 -0.316827 0.265423 150 0 0
0.063566 -0.314674 0.263789 150 0 0
0.069855 -0.315979 0.263389 150 0 0
-0.080105 -0.312461 0.264495 150 0 0
-0.066268 -0.312788 0.264584 150 0 0
0.064242 -0.313800 0.263540 150 0 0
0.072271 -0.314369 0.262440 150 0 0
0.067982 -0.308907 0.262982 150 0 0
0.068572 -0.310268 0.263081 150 0 0
0.075638 -0.308864 0.261329 150 0 0
-0.082758 -0.306890 0.259661 150 0 0
-0.079689 -0.307334 0.260600 150 0 0
-0.076848 -0.307849 0.262881 150 0 0
-0.073701 -0.307518 0.262575 150 0 0
0.071237 -0.308062 0.261354 150 0 0
0.074148 -0.307441 0.261067 150 0 0
-0.078981 -0.304977 0.261397 150 0 0
0.068367 -0.304280 0.261766 150 0 0
0.074147 -0.303991 0.260719 150 0 0
0.079304 -0.304910 0.259691 150 0 0
-0.080233 -0.300433 0.260089 150 0 0
0.077179 -0.300154 0.260140 150 0 0
0.081019 -0.300894 0.258364 150 0 0
-0.085279 -0.299234 0.258569 150 0 0
-0.083415 -0.299710 0.258052 150 0 0
0.076860 -0.299298 0.259011 150 0 0
0.080333 -0.297639 0.258882 150 0 0
0.080578 -0.299840 0.259136 150 0 0
-0.086194 -0.295389 0.257224 150 0 0
0.081841 -0.296806 0.257320 150 0 0
0.087828 -0.295951 0.256469 150 0 0
-0.095010 -0.291628 0.257294 150 0 0
-0.091305 -0.292561 0.255108 150 0 0
-0.085088 -0.293049 0.257841 150 0 0
0.084090 -0.293035 0.257643 150 0 0
0.087807 -0.292693 0.256184 150 0 0
-0.091273 -0.288818 0.255267 150 0 0
0.084180 -0.289221 0.254761 150 0 0
-0.101106 -0.288316 0.254363 150 0 0
-0.092459 -0.288369 0.254886 150 0 0
-0.090508 -0.285754 0.255402 150 0 0
0.092509 -0.286487 0.253816 150 0 0
-0.088111 -0.284800 0.254786 150 0 0
0.087377 -0.283904 0.255223 150 0 0
0.094182 -0.283310 0.252653 150 0 0
-0.095502 -0.283155 0.252198 150 0 0
-0.093230 -0.281686 0.254000 150 0 0
0.087623 -0.283157 0.252656 150 0 0
-0.097031 -0.277919 0.250427 150 0 0
0.092033 -0.279435 0.252941 150 0 0
0.093109 -0.277618 0.253118 150 0 0
0.095724 -0.277826 0.251420 150 0 0
-0.103103 -0.275078 0.249776 150 0 0
-0.097349 -0.276266 0.252143 150 0 0
0.092033 -0.275676 0.250137 150 0 0
-0.102551 -0.273678 0.250177 150 0 0
-0.098269 -0.272028 0.251139 150 0 0
0.097396 -0.271579 0.250022 150 0 0
-0.096209 -0.270368 0.250908 150 0 0
0.100171 -0.270343 0.248360 150 0 0
-0.102684 -0.268195 0.249552 150 0 0
0.095282 -0.267565 0.248146 150 0 0
-0.112812 -0.264722 0.247058 150 0 0
-0.109926 -0.264507 0.245922 150 0 0
-0.107290 -0.264723 0.246148 150 0 0
-0.104951 -0.264423 0.248340 150 0 0
0.098287 -0.265929 0.246653 150 0 0
0.101095 -0.264889 0.247483 150 0 0
-0.106589 -0.262058 0.247561 150 0 0
-0.099616 -0.262602 0.247895 150 0 0
0.100313 -0.259838 0.247484 150 0 0
0.104914 -0.262292 0.245275 150 0 0
-0.113767 -0.259052 0.245020 150 0 0
-0.111031 -0.259026 0.245708 150 0 0
0.104681 -0.259513 0.244938 150 0 0
-0.109906 -0.255004 0.243054 150 0 0
0.105955 -0.256446 0.244364 150 0 0
-0.118555 -0.253315 0.243263 150 0 0
-0.114906 -0.254374 0.243832 150 0 0
-0.113153 -0.252729 0.243016 150 0 0
0.104265 -0.253831 0.244761 150 0 0
0.108462 -0.252346 0.242897 150 0 0
-0.111414 -0.249353 0.241978 150 0 0
-0.105874 -0.250694 0.244360 150 0 0
0.100010 -0.248518 0.243097 150 0 0
0.105091 -0.250764 0.244085 150 0 0
-0.116184 -0.246717 0.242936 150 0 0
0.104529 -0.248001 0.242378 150 0 0
0.108067 -0.247691 0.242631 150 0 0
0.110518 -0.247343 0.241452 150 0 0
-0.118697 -0.245685 0.241921 150 0 0
-0.119276 -0.242566 0.239543 150 0 0
0.109800 -0.240773 0.241307 150 0 0
0.114886 -0.242286 0.238763 150 0 0
0.110386 -0.236883 0.240048 150 0 0
0.114622 -0.238949 0.237964 150 0 0
-0.130381 -0.235066 0.237064 150 0 0
-0.126384 -0.236421 0.237001 150 0 0
-0.122498 -0.236184 0.237662 150 0 0
0.112096 -0.236313 0.236721 150 0 0
-0.129113 -0.233314 0.236089 150 0 0
-0.120370 -0.233033 0.236946 150 0 0
-0.115982 -0.234024 0.238787 150 0 0
0.117923 -0.233395 0.237020 150 0 0
-0.128395 -0.230807 0.237505 150 0 0
-0.124241 -0.230301 0.237512 150 0 0
-0.123418 -0.230605 0.235526 150 0 0
-0.130038 -0.228666 0.234513 150 0 0
-0.127006 -0.228078 0.236134 150 0 0
-0.124550 -0.228017 0.234860 150 0 0
0.117650 -0.227792 0.236177 150 0 0
0.120047 -0.228101 0.235060 150 0 0
0.116010 -0.224861 0.234262 150 0 0
0.120393 -0.225835 0.233863 150 0 0
0.125995 -0.223549 0.232594 150 0 0
-0.129463 -0.222585 0.233002 150 0 0
0.117074 -0.222514 0.235268 150 0 0
0.121713 -0.220261 0.233588 150 0 0
-0.134969 -0.218260 0.233354 150 0 0
-0.138213 -0.215653 0.230434 150 0 0
-0.131742 -0.216437 0.232599 150 0 0
0.120340 -0.216683 0.233425 150 0 0
0.123585 -0.215768 0.233112 150 0 0
0.121280 -0.212187 0.230963 150 0 0
0.125083 -0.212482 0.231046 150 0 0
0.127317 -0.212614 0.230250 150 0 0
0.129672 -0.212137 0.230080 150 0 0
-0.137741 -0.208846 0.229476 150 0 0
-0.135274 -0.210634 0.230498 150 0 0
0.125274 -0.210245 0.229901 150 0 0
0.129293 -0.209281 0.228609 150 0 0
0.126160 -0.205518 0.229737 150 0 0
0.128789 -0.207427 0.228893 150 0 0
0.132611 -0.207274 0.228400 150 0 0
-0.140382 -0.203817 0.228375 150 0 0
-0.138407 -0.204342 0.228473 150 0 0
-0.131851 -0.203766 0.228800 150 0 0
0.127281 -0.203293 0.228374 150 0 0
-0.139218 -0.200291 0.227786 150 0 0
0.134715 -0.198211 0.224829 150 0 0
-0.145369 -0.194859 0.225206 150 0 0
-0.139757 -0.195752 0.223575 150 0 0
-0.135409 -0.196130 0.226144 150 0 0
-0.146497 -0.194416 0.224098 150 0 0
-0.147104 -0.191490 0.223439 150 0 0
-0.141150 -0.190628 0.222375 150 0 0
-0.137716 -0.188872 0.224249 150 0 0
0.137177 -0.190777 0.222980 150 0 0
0.138548 -0.191543 0.222220 150 0 0
0.138054 -0.187172 0.221689 150 0 0
-0.149768 -0.184578 0.221288 150 0 0
0.137321 -0.185201 0.222591 150 0 0
0.141649 -0.184527 0.221087 150 0 0
0.141425 -0.181713 0.219997 150 0 0
0.144637 -0.180592 0.219592 150 0 0
-0.152024 -0.179723 0.219976 150 0 0
0.139607 -0.178678 0.220327 150 0 0
-0.153800 -0.175408 0.219624 150 0 0
0.143222 -0.175620 0.219543 150 0 0
-0.156796 -0.173309 0.216918 150 0 0
0.141302 -0.173042 0.218855 150 0 0
-0.158052 -0.169873 0.217260 150 0 0
-0.148740 -0.170181 0.216893 150 0 0
0.144999 -0.169116 0.217276 150 0 0
0.148429 -0.169852 0.216062 150 0 0
-0.160215 -0.163412 0.214850 150 0 0
-0.162535 -0.162824 0.212910 150 0 0
0.151060 -0.161292 0.214887 150 0 0
-0.154158 -0.159835 0.213059 150 0 0
0.150786 -0.158475 0.213171 150 0 0
0.153222 -0.157674 0.212448 150 0 0
-0.166491 -0.156213 0.212233 150 0 0
-0.164563 -0.156353 0.211194 150 0 0
0.149177 -0.157359 0.212678 150 0 0
-0.164911 -0.153932 0.210860 150 0 0
-0.161591 -0.153784 0.212725 150 0 0
0.154342 -0.152887 0.212144 150 0 0
-0.159881 -0.151950 0.209508 150 0 0
-0.155581 -0.151278 0.211857 150 0 0
0.155089 -0.149678 0.211150 150 0 0
-0.167642 -0.146683 0.210409 150 0 0
0.153587 -0.146582 0.209065 150 0 0
0.159733 -0.148421 0.208744 150 0 0
-0.171093 -0.143815 0.208859 150 0 0
0.159195 -0.145860 0.209376 150 0 0
-0.174903 -0.141867 0.206234 150 0 0
-0.162721 -0.143038 0.207561 150 0 0
-0.173328 -0.139504 0.206023 150 0 0
-0.166224 -0.137962 0.205409 150 0 0
0.158416 -0.138317 0.207009 150 0 0
-0.170791 -0.136657 0.207082 150 0 0
-0.164163 -0.136770 0.206498 150 0 0
0.161798 -0.136090 0.207255 150 0 0
0.166000 -0.136741 0.204675 150 0 0
-0.176183 -0.134675 0.203992 150 0 0
-0.173344 -0.132261 0.205754 150 0 0
-0.167613 -0.133901 0.204470 150 0 0
0.161865 -0.130544 0.203658 150 0 0
0.169166 -0.127606 0.202617 150 0 0
0.170632 -0.127298 0.201360 150 0 0
0.172168 -0.124517 0.200809 150 0 0
0.163230 -0.122373 0.202649 150 0 0
0.167115 -0.121658 0.201140 150 0 0
0.168371 -0.122226 0.201855 150 0 0
-0.174484 -0.119158 0.199772 150 0 0
0.164392 -0.118196 0.201124 150 0 0
0.167401 -0.117972 0.201282 150 0 0
0.169096 -0.116019 0.199235 150 0 0
0.173727 -0.116556 0.199788 150 0 0
-0.186312 -0.110391 0.197320 150 0 0
-0.187349 -0.107863 0.195122 150 0 0
-0.183564 -0.107614 0.197801 150 0 0
0.180174 -0.109234 0.195446 150 0 0
-0.190884 -0.104390 0.193906 150 0 0
0.181888 -0.104200 0.194180 150 0 0
-0.192621 -0.099925 0.193070 150 0 0
-0.197138 -0.090914 0.190423 150 0 0
0.198791 -0.084380 0.189427 150 0 0
0.200099 -0.082529 0.189282 150 0 0
-0.211945 -0.071024 0.184435 150 0 0
0.208700 -0.071221 0.184856 150 0 0
0.210765 -0.070079 0.183254 150 0 0
0.213242 -0.064907 0.183742 150 0 0
-0.222583 -0.055355 0.179134 150 0 0
0.220673 -0.054363 0.179662 150 0 0
0.222219 -0.052094 0.179395 150 0 0
-0.225928 -0.049931 0.178300 150 0 0
-0.231257 -0.041498 0.174521 150 0 0
-0.238627 -0.030361 0.172642 150 0 0
0.234935 -0.029468 0.170528 150 0 0
0.237862 -0.024485 0.168577 150 0 0
-0.247384 -0.006175 0.164743 150 0 0
-0.252864 0.000763 0.162506 150 0 0
-0.255277 0.004233 0.159530 150 0 0
0.252077 0.003722 0.159340 150 0 0
0.254305 0.009793 0.157718 150 0 0
-0.255816 0.014643 0.158129 150 0 0
0.267855 0.050486 0.144032 150 0 0
0.268693 0.056361 0.143948 150 0 0
0.280395 0.121377 0.123450 150 0 0
0.279896 0.122748 0.120721 150 0 0
0.280195 0.137183 0.115922 150 0 0
0.280214 0.164440 0.107907 150 0 0
0.281785 0.162929 0.108352 150 0 0
0.280189 0.170769 0.106314 150 0 0
0.279934 0.180769 0.101564 150 0 0
0.278858 0.188733 0.100918 150 0 0
0.279156 0.193393 0.097187 150 0 0
0.277045 0.212571 0.091729 150 0 0
0.274605 0.231813 0.087116 150 0 0
0.271469 0.257173 0.078531 150 0 0
0.269028 0.267825 0.076036 150 0 0
0.267369 0.272503 0.072893 150 0 0
-0.261514 0.294208 0.065596 150 0 0
-0.259777 0.313494 0.060685 150 0 0
-0.257433 0.320574 0.057398 150 0 0
-0.254163 0.330436 0.052776 150 0 0
0.247847 0.340529 0.051845 150 0 0
0.242142 0.351320 0.047913 150 0 0
0.243171 0.352595 0.046242 150 0 0
0.237653 0.365668 0.043459 150 0 0
-0.240815 0.370659 0.040739 150 0 0
-0.230535 0.372640 0.041134 150 0 0
-0.221719 0.405744 0.029541 150 0 0
-0.203833 0.420218 0.025458 150 0 0
-0.211826 0.423607 0.025150 150 0 0
-0.166050 0.463391 0.012335 150 0 0
0.163515 0.465628 0.010148 150 0 0
0.155998 0.471628 0.008182 150 0 0
-0.147059 0.477393 0.007578 150 0 0
-0.143247 0.482018 0.005360 150 0 0
-0.130115 0.486198 0.004989 150 0 0
-0.106064 0.497709 -0.001153 150 0 0
0.104705 0.498345 -0.001166 150 0 0
-0.101814 0.500215 0.000529 150 0 0
-0.097798 0.501539 -0.000601 150 0 0
0.101161 0.500236 -0.001854 150 0 0
0.094929 0.502523 -0.002549 150 0 0
-0.083444 0.505426 -0.001994 150 0 0
0.073751 0.509173 -0.003015 150 0 0
-0.018461 -0.354225 0.278597 150 0 0
-0.012654 -0.354544 0.278603 150 0 0
-0.012486 -0.353989 0.278653 150 0 0
-0.006948 -0.355572 0.279182 150 0 0
-0.017616 -0.352065 0.277536 150 0 0
-0.011228 -0.350914 0.279112 150 0 0
-0.005876 -0.351836 0.278171 150 0 0
-0.000525 -0.350903 0.277868 150 0 0
0.008418 -0.351399 0.278206 150 0 0
0.019591 -0.352942 0.277955 150 0 0
-0.036589 -0.348211 0.277804 150 0 0
-0.029123 -0.350346 0.278265 150 0 0
-0.015866 -0.348617 0.278529 150 0 0
-0.002808 -0.348744 0.278074 150 0 0
-0.000304 -0.349182 0.277895 150 0 0
0.004290 -0.347854 0.277707 150 0 0
0.008372 -0.349521 0.278023 150 0 0
0.012547 -0.348681 0.276922 150 0 0
0.019337 -0.349523 0.276806 150 0 0
0.021384 -0.350176 0.277496 150 0 0
0.025897 -0.348558 0.276691 150 0 0
0.028626 -0.348696 0.276655 150 0 0
-0.027521 -0.347280 0.276194 150 0 0
-0.024000 -0.346154 0.276723 150 0 0
-0.018747 -0.346310 0.277873 150 0 0
-0.013969 -0.347726 0.277052 150 0 0
-0.011149 -0.346539 0.277488 150 0 0
-0.005374 -0.345198 0.277521 150 0 0
-0.002362 -0.347005 0.276854 150 0 0
-0.000132 -0.346992 0.277694 150 0 0
0.007865 -0.344629 0.277275 150 0 0
0.010913 -0.346498 0.277685 150 0 0
0.013552 -0.345909 0.276931 150 0 0
0.016622 -0.347755 0.276715 150 0 0
0.023383 -0.346617 0.276508 150 0 0
0.034735 -0.345919 0.275678 150 0 0
0.038275 -0.347327 0.276319 150 0 0
-0.038070 -0.343722 0.277024 150 0 0
-0.032041 -0.344003 0.275037 150 0 0
-0.027789 -0.342941 0.275748 150 0 0
-0.023043 -0.343062 0.277504 150 0 0
-0.012216 -0.344591 0.276711 150 0 0
-0.004706 -0.343993 0.277645 150 0 0
-0.001313 -0.343453 0.276464 150 0 0
0.001568 -0.344076 0.277537 150 0 0
0.007242 -0.342014 0.276232 150 0 0
0.018115 -0.342940 0.276205 150 0 0
0.020624 -0.344662 0.276343 150 0 0
0.024129 -0.344199 0.276131 150 0 0
0.031449 -0.342542 0.275553 150 0 0
0.033408 -0.343451 0.275284 150 0 0
-0.048239 -0.339562 0.274245 150 0 0
-0.044039 -0.340019 0.275221 150 0 0
-0.035105 -0.340635 0.273974 150 0 0
-0.032891 -0.339272 0.274582 150 0 0
-0.018239 -0.339379 0.276367 150 0 0
-0.006270 -0.339851 0.276155 150 0 0
0.002893 -0.340920 0.276610 150 0 0
0.013757 -0.338939 0.275867 150 0 0
0.021023 -0.341889 0.275788 150 0 0
0.025334 -0.340035 0.275868 150 0 0
0.028857 -0.341380 0.276165 150 0 0
-0.041330 -0.336642 0.273131 150 0 0
-0.036865 -0.336712 0.273357 150 0 0
-0.033805 -0.336481 0.274425 150 0 0
-0.031129 -0.336795 0.274357 150 0 0
-0.009693 -0.338089 0.276008 150 0 0
0.006616 -0.338391 0.275873 150 0 0
0.025172 -0.337876 0.275161 150 0 0
0.026517 -0.336111 0.275437 150 0 0
0.035578 -0.339158 0.274413 150 0 0
0.039516 -0.337941 0.274969 150 0 0
-0.042140 -0.333977 0.272737 150 0 0
-0.036573 -0.334815 0.273348 150 0 0
0.024686 -0.334714 0.274870 150 0 0
0.033511 -0.334635 0.273723 150 0 0
0.036228 -0.335445 0.272469 150 0 0
0.038534 -0.335746 0.273760 150 0 0
-0.043754 -0.332054 0.271925 150 0 0
-0.030465 -0.332689 0.274140 150 0 0
0.033172 -0.333218 0.273017 150 0 0
0.042588 -0.332763 0.271982 150 0 0
0.045615 -0.332277 0.271156 150 0 0
-0.058551 -0.330788 0.271090 150 0 0
-0.054805 -0.329529 0.271794 150 0 0
-0.054460 -0.329311 0.270150 150 0 0
-0.050236 -0.328473 0.270349 150 0 0
-0.046048 -0.328448 0.271533 150 0 0
-0.043320 -0.328182 0.271000 150 0 0
-0.039113 -0.330452 0.272291 150 0 0
-0.034851 -0.330212 0.272995 150 0 0
0.040656 -0.328774 0.272862 150 0 0
0.041852 -0.328914 0.270477 150 0 0
-0.059506 -0.325240 0.270327 150 0 0
-0.054011 -0.326031 0.269113 150 0 0
-0.043276 -0.325841 0.270765 150 0 0
-0.040630 -0.325202 0.271730 150 0 0
0.041748 -0.326930 0.270312 150 0 0
0.047580 -0.325839 0.269985 150 0 0
-0.064796 -0.324585 0.269090 150 0 0
-0.058346 -0.322488 0.268148 150 0 0
