ply
format ascii 1.0
element vertex 1310
property float x
property float y
property float z
property uchar red
property uchar green
property uchar blue
end_header
0.070977 -0.012260 0.183591 30 30 30
0.072788 -0.013875 0.182834 30 30 30
0.084783 -0.013032 0.183490 30 30 30
0.092909 -0.011502 0.183503 30 30 30
0.094921 -0.013839 0.183828 30 30 30
0.097108 -0.011954 0.182229 30 30 30
0.023880 -0.009719 0.181713 30 30 30
0.069266 -0.009840 0.182071 30 30 30
0.098248 -0.009350 0.182175 30 30 30
0.101550 -0.009797 0.181847 30 30 30
-0.004300 -0.007151 0.180522 30 30 30
0.089093 -0.007171 0.181629 30 30 30
0.096764 -0.005859 0.180667 30 30 30
0.099582 -0.006038 0.180782 30 30 30
0.103028 -0.008168 0.180578 30 30 30
0.106204 -0.007397 0.179867 30 30 30
0.109053 -0.008205 0.179734 30 30 30
0.025960 -0.004093 0.179094 30 30 30
0.092265 -0.005184 0.180561 30 30 30
0.096049 -0.003177 0.180125 30 30 30
0.103991 -0.004974 0.180616 30 30 30
0.107729 -0.003052 0.179074 30 30 30
-0.003252 -0.002135 0.180384 30 30 30
0.054874 0.000135 0.179141 30 30 30
0.093098 -0.001014 0.179859 30 30 30
0.099884 -0.000626 0.178354 30 30 30
0.103739 -0.000729 0.179538 30 30 30
0.108825 -0.000900 0.178133 30 30 30
-0.001366 0.002332 0.177398 30 30 30
0.027587 0.000914 0.179019 30 30 30
0.095123 0.002002 0.178918 30 30 30
0.103288 0.002235 0.177793 30 30 30
0.029774 0.004966 0.177947 30 30 30
-0.002793 0.006773 0.176122 30 30 30
0.042297 0.008757 0.176790 30 30 30
0.043516 0.006015 0.175961 30 30 30
0.089874 0.009021 0.176981 30 30 30
0.097887 0.006904 0.175727 30 30 30
0.031599 0.009680 0.174080 30 30 30
0.091337 0.011405 0.174923 30 30 30
-0.000013 0.012734 0.174678 30 30 30
0.001508 0.011352 0.173439 30 30 30
0.086781 0.012161 0.174675 30 30 30
0.078431 0.015371 0.175033 30 30 30
0.080951 0.015176 0.174775 30 30 30
0.075434 0.019216 0.171705 30 30 30
-0.056363 0.022822 0.171380 30 30 30
-0.053507 0.021981 0.171959 30 30 30
-0.037295 0.023027 0.171687 30 30 30
-0.017469 0.020467 0.171995 30 30 30
-0.069924 0.024158 0.169358 30 30 30
-0.064066 0.024220 0.170894 30 30 30
-0.060406 0.025303 0.169669 30 30 30
-0.046379 0.023527 0.170934 30 30 30
-0.013483 0.023404 0.172509 30 30 30
-0.058048 0.028312 0.169464 30 30 30
-0.054869 0.028131 0.169505 30 30 30
0.062728 0.027202 0.168940 30 30 30
-0.055621 0.031719 0.169450 30 30 30
-0.052340 0.030129 0.169703 30 30 30
-0.065996 0.032892 0.167569 30 30 30
-0.057020 0.033958 0.167801 30 30 30
-0.066881 0.035671 0.166432 30 30 30
-0.059997 0.034662 0.166876 30 30 30
-0.056283 0.037840 0.167389 30 30 30
-0.062464 0.041571 0.165651 30 30 30
-0.053748 0.041742 0.165809 30 30 30
-0.066738 0.044115 0.163943 30 30 30
-0.059700 0.043995 0.165740 30 30 30
-0.057419 0.044448 0.164755 30 30 30
-0.050624 0.045004 0.165445 30 30 30
-0.060302 0.047447 0.162757 30 30 30
-0.055276 0.047050 0.163624 30 30 30
-0.061434 0.050063 0.161516 30 30 30
-0.057398 0.048941 0.162586 30 30 30
-0.049420 0.050417 0.162597 30 30 30
-0.045519 0.050085 0.162809 30 30 30
-0.043025 0.048491 0.161694 30 30 30
-0.039280 0.049977 0.163007 30 30 30
-0.035463 0.050898 0.162188 30 30 30
-0.026999 0.050614 0.163474 30 30 30
-0.024031 0.049204 0.163719 30 30 30
-0.022181 0.050655 0.161348 30 30 30
-0.012246 0.050643 0.162099 30 30 30
0.072572 0.049525 0.161438 30 30 30
-0.070931 0.051043 0.160439 30 30 30
0.077340 0.052952 0.160704 30 30 30
0.072315 0.054080 0.160247 30 30 30
0.081535 0.055847 0.159681 30 30 30
0.001717 0.059185 0.159326 30 30 30
0.079120 0.059213 0.159837 30 30 30
0.000803 0.060831 0.158538 30 30 30
0.040806 0.065472 0.157572 30 30 30
0.043528 0.065741 0.156358 30 30 30
0.098096 0.068705 0.157464 30 30 30
0.029975 0.068642 0.156329 30 30 30
0.096009 0.070732 0.156075 30 30 30
-0.001289 0.072157 0.156330 30 30 30
0.093222 0.074310 0.154876 30 30 30
0.101764 0.071606 0.153713 30 30 30
0.106041 0.073265 0.154992 30 30 30
-0.003472 0.074607 0.154002 30 30 30
0.053724 0.074396 0.154451 30 30 30
0.099382 0.074700 0.155193 30 30 30
0.102375 0.077226 0.153993 30 30 30
0.103521 0.075386 0.154571 30 30 30
0.108850 0.076639 0.152323 30 30 30
-0.005018 0.079545 0.152014 30 30 30
0.026100 0.080307 0.153999 30 30 30
0.089674 0.079938 0.152831 30 30 30
0.095319 0.077435 0.152641 30 30 30
0.067512 0.082780 0.152118 30 30 30
0.086827 0.081058 0.152927 30 30 30
0.098829 0.082496 0.151669 30 30 30
0.101523 0.080453 0.152928 30 30 30
0.103846 0.082149 0.150820 30 30 30
0.024984 0.082844 0.150912 30 30 30
0.070902 0.084961 0.151234 30 30 30
0.085857 0.085759 0.151687 30 30 30
0.090469 0.083522 0.150589 30 30 30
0.095066 0.084215 0.152406 30 30 30
0.102358 0.083067 0.150752 30 30 30
-0.008577 0.087545 0.151135 30 30 30
0.081509 0.087574 0.150965 30 30 30
0.089670 0.087257 0.148725 30 30 30
0.093393 0.086123 0.151679 30 30 30
0.096838 0.087174 0.150207 30 30 30
0.100727 0.086325 0.149688 30 30 30
0.078446 0.089203 0.149937 30 30 30
0.086924 0.089417 0.149416 30 30 30
0.090162 0.089752 0.150646 30 30 30
0.092044 0.089844 0.149621 30 30 30
0.098279 0.090337 0.147994 30 30 30
0.100096 0.089245 0.148062 30 30 30
0.024271 0.091700 0.148300 30 30 30
0.084249 0.092390 0.148595 30 30 30
0.087585 0.094226 0.149205 30 30 30
0.091504 0.093098 0.149001 30 30 30
0.098010 0.093774 0.146601 30 30 30
-0.010150 0.094799 0.148185 30 30 30
0.019216 0.096572 0.147628 30 30 30
0.086647 0.095372 0.146260 30 30 30
0.089880 0.095940 0.147372 30 30 30
0.092490 0.095505 0.146866 30 30 30
0.019361 0.098768 0.147185 30 30 30
0.020005 0.102181 0.146580 30 30 30
0.091362 0.100914 0.144596 30 30 30
-0.005857 0.105237 0.144591 30 30 30
-0.013159 0.106896 0.143065 30 30 30
0.000336 0.107591 0.143662 30 30 30
-0.014299 0.110308 0.141402 30 30 30
-0.009550 0.110725 0.143257 30 30 30
-0.003734 0.108762 0.143971 30 30 30
0.007252 0.110220 0.143042 30 30 30
0.014521 0.109865 0.141719 30 30 30
0.015528 0.109654 0.143795 30 30 30
-0.008559 0.114223 0.141864 30 30 30
-0.002453 0.113574 0.141093 30 30 30
0.002132 0.114504 0.142886 30 30 30
0.009173 0.113495 0.142304 30 30 30
-0.005755 0.115826 0.140233 30 30 30
-0.002776 0.116861 0.141059 30 30 30
-0.002116 0.115985 0.141374 30 30 30
0.004304 0.114882 0.142094 30 30 30
0.009275 0.117001 0.141201 30 30 30
-0.011740 0.117333 0.139739 30 30 30
-0.010005 0.118475 0.139963 30 30 30
-0.008049 0.117778 0.140644 30 30 30
-0.001468 0.118075 0.140003 30 30 30
0.004350 0.119791 0.140725 30 30 30
0.006943 0.117941 0.141427 30 30 30
0.012863 0.117460 0.140206 30 30 30
-0.004590 0.122457 0.137750 30 30 30
-0.002348 0.120049 0.139696 30 30 30
0.009662 0.121538 0.139668 30 30 30
-0.001156 0.123583 0.137439 30 30 30
0.010629 -0.042233 0.194991 30 30 30
-0.008435 -0.039471 0.193086 30 30 30
-0.000990 -0.040059 0.193785 30 30 30
0.000904 -0.041315 0.193990 30 30 30
0.006904 -0.039093 0.194488 30 30 30
0.011456 -0.041741 0.194033 30 30 30
0.014289 -0.039066 0.194733 30 30 30
-0.008111 -0.037538 0.193137 30 30 30
-0.002927 -0.038190 0.192627 30 30 30
-0.001456 -0.038012 0.193530 30 30 30
0.003133 -0.037588 0.194105 30 30 30
0.009486 -0.036643 0.193443 30 30 30
-0.013190 -0.035596 0.192623 30 30 30
-0.009888 -0.033333 0.192804 30 30 30
-0.007440 -0.035070 0.193118 30 30 30
-0.005507 -0.034508 0.192002 30 30 30
0.001674 -0.034460 0.192665 30 30 30
0.014985 -0.035341 0.193026 30 30 30
0.016827 -0.033932 0.193889 30 30 30
-0.008980 -0.032379 0.191185 30 30 30
-0.006196 -0.030849 0.193208 30 30 30
0.003942 -0.031658 0.192214 30 30 30
0.009154 -0.032755 0.192958 30 30 30
0.011740 -0.030733 0.193007 30 30 30
0.015058 -0.032716 0.192014 30 30 30
0.017513 -0.032634 0.191988 30 30 30
-0.007176 -0.029171 0.191954 30 30 30
-0.003175 -0.029729 0.192264 30 30 30
-0.000551 -0.030164 0.191581 30 30 30
0.002278 -0.028852 0.190750 30 30 30
0.008832 -0.028221 0.191338 30 30 30
-0.010017 -0.026766 0.190664 30 30 30
-0.005997 -0.025236 0.189947 30 30 30
-0.003950 -0.027173 0.190179 30 30 30
0.000462 -0.026176 0.190508 30 30 30
0.004648 -0.025761 0.190895 30 30 30
0.020849 -0.026534 0.190803 30 30 30
-0.003774 -0.022686 0.190073 30 30 30
0.002273 -0.022700 0.190610 30 30 30
0.082600 -0.022040 0.188220 30 30 30
-0.010142 -0.019360 0.188224 30 30 30
0.021847 -0.021201 0.188305 30 30 30
0.084323 -0.020534 0.187462 30 30 30
0.023255 -0.017252 0.186581 30 30 30
0.085833 -0.017652 0.186758 30 30 30
0.089475 -0.017423 0.185886 30 30 30
-0.007721 -0.014969 0.186426 30 30 30
0.023871 -0.014265 0.186107 30 30 30
0.076188 -0.014463 0.185872 30 30 30
0.081017 -0.013831 0.186273 30 30 30
0.083246 -0.015075 0.186822 30 30 30
0.085750 -0.013543 0.186153 30 30 30
0.024150 -0.012623 0.186697 30 30 30
0.069479 -0.013119 0.184414 30 30 30
0.078878 -0.012447 0.185000 30 30 30
0.082568 -0.012180 0.186553 30 30 30
0.086551 -0.011429 0.185875 30 30 30
0.089479 -0.012581 0.184795 30 30 30
0.024007 -0.009365 0.183457 30 30 30
0.075037 -0.008910 0.185484 30 30 30
0.079876 -0.007829 0.184127 30 30 30
0.084012 -0.008124 0.184963 30 30 30
0.088865 -0.008760 0.184067 30 30 30
0.094551 -0.008837 0.183335 30 30 30
-0.005160 -0.007127 0.184347 30 30 30
0.026892 -0.006517 0.183258 30 30 30
0.083973 -0.005890 0.185056 30 30 30
0.087526 -0.005930 0.184018 30 30 30
0.091097 -0.004911 0.182965 30 30 30
0.094854 -0.004969 0.182652 30 30 30
-0.006653 -0.003853 0.182628 30 30 30
0.057139 -0.003913 0.183816 30 30 30
0.059553 -0.001833 0.182650 30 30 30
0.081423 -0.003725 0.183167 30 30 30
0.087575 -0.003330 0.183658 30 30 30
0.095050 -0.002308 0.181986 30 30 30
-0.002655 0.000755 0.182904 30 30 30
0.084752 -0.001366 0.182361 30 30 30
0.090147 -0.001329 0.182653 30 30 30
0.091906 0.000152 0.183050 30 30 30
-0.003940 0.001447 0.179886 30 30 30
0.084604 0.003029 0.181530 30 30 30
0.092054 0.002780 0.181130 30 30 30
0.096123 0.002308 0.181170 30 30 30
0.097766 0.001874 0.180926 30 30 30
0.092861 0.005030 0.179122 30 30 30
0.095704 0.004698 0.179910 30 30 30
0.101433 0.003762 0.179267 30 30 30
0.086950 0.007377 0.180328 30 30 30
0.086599 0.012523 0.178419 30 30 30
0.081338 0.013949 0.177523 30 30 30
0.083316 0.014176 0.177258 30 30 30
0.072661 0.019432 0.173951 30 30 30
0.082047 0.018459 0.174932 30 30 30
-0.049510 0.022234 0.173823 30 30 30
-0.044883 0.023338 0.174549 30 30 30
-0.034183 0.021459 0.175048 30 30 30
-0.015627 0.021294 0.174537 30 30 30
-0.009515 0.021196 0.174238 30 30 30
-0.059438 0.025317 0.172670 30 30 30
-0.054607 0.025518 0.171877 30 30 30
-0.042922 0.026094 0.174352 30 30 30
-0.035944 0.024634 0.174192 30 30 30
-0.060402 0.026797 0.171701 30 30 30
-0.051579 0.027994 0.172397 30 30 30
-0.048492 0.027271 0.173159 30 30 30
-0.050749 0.030902 0.173016 30 30 30
-0.047846 0.030834 0.171290 30 30 30
-0.045516 0.030337 0.173367 30 30 30
0.061786 0.030970 0.171989 30 30 30
-0.057691 0.033523 0.170577 30 30 30
-0.043913 0.033842 0.171351 30 30 30
-0.061423 0.037069 0.168173 30 30 30
-0.054327 0.036600 0.169956 30 30 30
-0.051613 0.036732 0.170821 30 30 30
-0.047050 0.036051 0.170732 30 30 30
-0.051642 0.038933 0.168331 30 30 30
-0.046137 0.039677 0.169432 30 30 30
-0.046214 0.043943 0.168124 30 30 30
-0.054944 0.045009 0.166345 30 30 30
-0.051761 0.047129 0.167372 30 30 30
-0.046820 0.047217 0.167028 30 30 30
0.064916 0.049538 0.166767 30 30 30
0.069023 0.048406 0.166476 30 30 30
-0.052695 0.049445 0.165242 30 30 30
-0.043365 0.052051 0.165694 30 30 30
-0.033623 0.049754 0.165488 30 30 30
-0.031254 0.050666 0.164813 30 30 30
-0.020499 0.051296 0.165486 30 30 30
0.068188 0.051688 0.165606 30 30 30
0.074335 0.051557 0.164300 30 30 30
-0.026560 0.052726 0.164131 30 30 30
-0.013080 0.052836 0.164175 30 30 30
0.079632 0.055264 0.163927 30 30 30
0.076237 0.057273 0.163667 30 30 30
0.077643 0.058669 0.161703 30 30 30
0.085604 0.059749 0.162850 30 30 30
0.042807 0.066161 0.159055 30 30 30
0.089573 0.066717 0.161581 30 30 30
0.092400 0.064542 0.160169 30 30 30
0.086509 0.069058 0.159678 30 30 30
0.095051 0.068070 0.160970 30 30 30
-0.002622 0.069515 0.158563 30 30 30
0.085086 0.072100 0.158372 30 30 30
0.096199 0.070283 0.159200 30 30 30
0.099923 0.071589 0.157869 30 30 30
0.053816 0.074237 0.158077 30 30 30
0.080855 0.074509 0.158308 30 30 30
0.087440 0.075320 0.157956 30 30 30
0.088056 0.072218 0.157393 30 30 30
0.090726 0.073608 0.157373 30 30 30
0.093665 0.075081 0.157274 30 30 30
0.099950 0.074348 0.156754 30 30 30
-0.005068 0.077670 0.156410 30 30 30
0.029200 0.076189 0.157317 30 30 30
0.078233 0.077591 0.157355 30 30 30
0.089529 0.077583 0.157408 30 30 30
0.093287 0.077879 0.156167 30 30 30
0.095419 0.076784 0.156117 30 30 30
0.101179 0.076563 0.155286 30 30 30
0.062832 0.079938 0.154440 30 30 30
0.079508 0.080294 0.155513 30 30 30
0.083764 0.078135 0.156250 30 30 30
0.092556 0.079843 0.155315 30 30 30
0.062720 0.082897 0.154032 30 30 30
0.072247 0.083574 0.155848 30 30 30
0.080861 0.082905 0.153641 30 30 30
0.084132 0.083735 0.155343 30 30 30
0.088164 0.082594 0.154371 30 30 30
0.090924 0.083287 0.154560 30 30 30
0.095021 0.081609 0.153974 30 30 30
0.024370 0.085925 0.154280 30 30 30
0.068381 0.085051 0.154667 30 30 30
0.078742 0.086148 0.153514 30 30 30
0.089206 0.084783 0.153608 30 30 30
0.071784 0.088046 0.153626 30 30 30
0.085992 0.087270 0.153339 30 30 30
0.089515 0.087336 0.152159 30 30 30
0.077960 0.091426 0.153228 30 30 30
0.080325 0.090401 0.152896 30 30 30
0.084054 0.090665 0.151910 30 30 30
0.021485 0.092482 0.151089 30 30 30
-0.008496 0.097989 0.150695 30 30 30
-0.005221 0.097869 0.151222 30 30 30
0.005992 0.097135 0.151658 30 30 30
0.084043 0.095318 0.149399 30 30 30
-0.010990 0.098697 0.148557 30 30 30
0.000146 0.098416 0.150407 30 30 30
0.003880 0.100556 0.148969 30 30 30
0.014261 0.100879 0.149936 30 30 30
0.019506 0.098193 0.149440 30 30 30
-0.012347 0.103903 0.148554 30 30 30
-0.010380 0.101572 0.147586 30 30 30
-0.000417 0.101272 0.147977 30 30 30
0.005987 0.102360 0.148337 30 30 30
0.008525 0.103348 0.148388 30 30 30
-0.007044 0.105187 0.148035 30 30 30
-0.001822 0.105119 0.147421 30 30 30
0.002025 0.105284 0.147935 30 30 30
0.007449 0.106260 0.147665 30 30 30
0.014725 0.106312 0.146334 30 30 30
0.017315 0.105069 0.146676 30 30 30
-0.012331 0.108202 0.146886 30 30 30
-0.002316 0.108106 0.145772 30 30 30
0.008952 0.107467 0.146734 30 30 30
0.012298 0.106816 0.146351 30 30 30
0.014183 0.109797 0.147524 30 30 30
-0.008425 0.109426 0.146040 30 30 30
0.004159 0.111040 0.144652 30 30 30
0.007166 0.111584 0.144749 30 30 30
0.007395 0.113185 0.144402 30 30 30
0.011190 0.112430 0.145649 30 30 30
-0.000384 0.115198 0.143392 30 30 30
0.013558 0.115023 0.143099 30 30 30
0.012394 0.118971 0.141709 30 30 30
0.007420 -0.034334 0.194556 30 30 30
-0.003784 -0.030125 0.193288 30 30 30
0.002865 -0.032464 0.193957 30 30 30
0.004562 -0.031563 0.194091 30 30 30
0.008334 -0.029546 0.194564 30 30 30
0.018031 -0.030229 0.193330 30 30 30
-0.008136 -0.027291 0.192965 30 30 30
0.000456 -0.027415 0.192703 30 30 30
0.001883 -0.028148 0.192544 30 30 30
0.006046 -0.029336 0.194174 30 30 30
0.011301 -0.028211 0.193419 30 30 30
0.013137 -0.027464 0.194490 30 30 30
-0.012844 -0.025223 0.192336 30 30 30
-0.008054 -0.026343 0.192957 30 30 30
-0.000144 -0.024204 0.192585 30 30 30
0.004675 -0.023900 0.193916 30 30 30
0.009265 -0.024759 0.193175 30 30 30
0.012478 -0.024137 0.192296 30 30 30
0.017220 -0.025079 0.193214 30 30 30
0.019180 -0.023660 0.193336 30 30 30
-0.008095 -0.021450 0.191221 30 30 30
-0.002091 -0.022124 0.192352 30 30 30
0.001848 -0.021298 0.192386 30 30 30
0.006097 -0.020731 0.192721 30 30 30
0.015482 -0.021871 0.193429 30 30 30
0.019713 -0.022378 0.191736 30 30 30
-0.010961 -0.018481 0.191453 30 30 30
-0.000397 -0.017706 0.192097 30 30 30
0.003124 -0.018712 0.190610 30 30 30
0.009305 -0.020050 0.192942 30 30 30
0.013399 -0.018785 0.191580 30 30 30
0.020768 -0.018344 0.191497 30 30 30
-0.009440 -0.017185 0.191565 30 30 30
-0.005913 -0.016950 0.190690 30 30 30
-0.003412 -0.016231 0.190311 30 30 30
0.005487 -0.015156 0.190762 30 30 30
0.009968 -0.017100 0.191223 30 30 30
0.075417 -0.015713 0.189253 30 30 30
0.077258 -0.016174 0.188842 30 30 30
-0.007429 -0.013799 0.190190 30 30 30
-0.000448 -0.014952 0.190266 30 30 30
0.021866 -0.014166 0.188226 30 30 30
0.071818 -0.014374 0.190001 30 30 30
0.072608 -0.012977 0.189623 30 30 30
0.075903 -0.013346 0.188173 30 30 30
0.069858 -0.010307 0.186989 30 30 30
0.066776 -0.006721 0.187198 30 30 30
0.077442 -0.007379 0.187289 30 30 30
0.080238 -0.009463 0.187026 30 30 30
0.081782 -0.007455 0.186357 30 30 30
-0.005110 -0.005194 0.185910 30 30 30
0.071895 -0.004383 0.186761 30 30 30
-0.004106 -0.002674 0.185895 30 30 30
0.025847 -0.002610 0.185713 30 30 30
0.059095 -0.002457 0.186123 30 30 30
0.072635 -0.002776 0.185264 30 30 30
0.076625 -0.000875 0.186401 30 30 30
0.082818 -0.002653 0.185720 30 30 30
0.026826 0.000624 0.184911 30 30 30
0.057169 0.000475 0.185689 30 30 30
0.071169 0.001022 0.185203 30 30 30
0.083581 0.001210 0.184497 30 30 30
0.053414 0.002443 0.183027 30 30 30
0.074607 0.002850 0.185470 30 30 30
0.077315 0.003449 0.183451 30 30 30
0.083716 0.002787 0.184805 30 30 30
0.086148 0.002149 0.184265 30 30 30
0.090193 0.003553 0.182882 30 30 30
0.073098 0.006266 0.183972 30 30 30
0.075813 0.006335 0.183270 30 30 30
0.081468 0.006273 0.183758 30 30 30
0.085257 0.007148 0.183329 30 30 30
0.087970 0.007053 0.182712 30 30 30
-0.001661 0.009184 0.180323 30 30 30
0.080349 0.010093 0.181623 30 30 30
0.083717 0.009363 0.183133 30 30 30
0.092081 0.008441 0.181067 30 30 30
0.000452 0.010456 0.180908 30 30 30
0.086009 0.012676 0.182065 30 30 30
0.089152 0.011056 0.181327 30 30 30
0.094522 0.010351 0.180250 30 30 30
0.079820 0.016287 0.180939 30 30 30
0.083667 0.015313 0.180788 30 30 30
0.074529 0.020923 0.177404 30 30 30
0.078586 0.019852 0.177793 30 30 30
-0.044471 0.024427 0.175967 30 30 30
-0.040735 0.023811 0.175964 30 30 30
-0.036545 0.024494 0.177926 30 30 30
0.071178 0.023470 0.177494 30 30 30
-0.049273 0.025768 0.175188 30 30 30
-0.046721 0.026869 0.176263 30 30 30
-0.030780 0.026324 0.177495 30 30 30
-0.022635 0.024766 0.176772 30 30 30
-0.020152 0.026432 0.177710 30 30 30
-0.016893 0.025564 0.176815 30 30 30
-0.045341 0.028577 0.175951 30 30 30
-0.039305 0.029140 0.174712 30 30 30
-0.047856 0.031799 0.174425 30 30 30
-0.042196 0.030816 0.174125 30 30 30
-0.034294 0.033275 0.174774 30 30 30
-0.048358 0.034724 0.173247 30 30 30
-0.042548 0.035249 0.172634 30 30 30
-0.037855 0.034790 0.174135 30 30 30
-0.050768 0.037439 0.171613 30 30 30
-0.041898 0.037532 0.172545 30 30 30
-0.034181 0.036891 0.173589 30 30 30
-0.039663 0.039288 0.171767 30 30 30
-0.036496 0.041173 0.171422 30 30 30
-0.048727 0.042072 0.170040 30 30 30
-0.042177 0.042666 0.171037 30 30 30
-0.034112 0.043918 0.171690 30 30 30
-0.051855 0.045142 0.168736 30 30 30
-0.038395 0.044996 0.170743 30 30 30
-0.033761 0.047584 0.170350 30 30 30
-0.050479 0.048939 0.167912 30 30 30
-0.041942 0.048444 0.168419 30 30 30
-0.037493 0.049029 0.169944 30 30 30
0.069882 0.049874 0.169009 30 30 30
-0.048591 0.052159 0.166788 30 30 30
-0.043884 0.050652 0.167415 30 30 30
-0.038255 0.051410 0.166841 30 30 30
-0.033986 0.050902 0.169102 30 30 30
-0.029225 0.050375 0.167355 30 30 30
-0.018217 0.051659 0.167689 30 30 30
-0.049699 0.054377 0.165692 30 30 30
-0.035450 0.053934 0.167221 30 30 30
-0.014629 0.054088 0.166814 30 30 30
0.076456 0.053993 0.167611 30 30 30
0.076947 0.062916 0.165720 30 30 30
0.081234 0.062103 0.164879 30 30 30
0.083444 0.063350 0.164604 30 30 30
0.077163 0.066587 0.163608 30 30 30
0.080113 0.065923 0.163119 30 30 30
0.087168 0.065222 0.163059 30 30 30
0.091375 0.067052 0.162812 30 30 30
-0.000110 0.070097 0.162350 30 30 30
0.078893 0.069827 0.161456 30 30 30
0.083808 0.068732 0.163840 30 30 30
0.084697 0.069613 0.162891 30 30 30
0.089023 0.068578 0.162465 30 30 30
0.092233 0.069915 0.160776 30 30 30
0.049230 0.072757 0.159962 30 30 30
0.087459 0.071639 0.161218 30 30 30
0.089129 0.072023 0.160530 30 30 30
0.091176 0.072360 0.160248 30 30 30
-0.002697 0.073395 0.160657 30 30 30
0.067649 0.075318 0.161592 30 30 30
0.074411 0.075519 0.160097 30 30 30
0.080109 0.074567 0.161513 30 30 30
0.086813 0.074820 0.159683 30 30 30
0.026557 0.076613 0.158524 30 30 30
0.056419 0.077485 0.159648 30 30 30
0.071221 0.077553 0.159876 30 30 30
0.076749 0.078498 0.160282 30 30 30
0.080400 0.077556 0.160674 30 30 30
0.085128 0.077054 0.158960 30 30 30
0.027020 0.079288 0.159808 30 30 30
0.061990 0.080884 0.159267 30 30 30
0.076059 0.080238 0.159848 30 30 30
0.079867 0.081053 0.158900 30 30 30
0.084187 0.079423 0.158542 30 30 30
-0.005595 0.082484 0.158782 30 30 30
0.066774 0.084117 0.157702 30 30 30
0.076263 0.083071 0.157592 30 30 30
0.084778 0.082329 0.156767 30 30 30
0.000936 0.087214 0.158051 30 30 30
0.076675 0.086930 0.156052 30 30 30
0.080031 0.085768 0.156299 30 30 30
-0.006878 0.089558 0.156700 30 30 30
0.023007 0.088971 0.155733 30 30 30
0.069339 0.090202 0.157008 30 30 30
0.073822 0.088689 0.155838 30 30 30
-0.006702 0.092204 0.154901 30 30 30
-0.003848 0.090486 0.155096 30 30 30
0.009578 0.092449 0.155270 30 30 30
0.012607 0.092384 0.155664 30 30 30
0.021060 0.092602 0.153477 30 30 30
0.021894 0.093213 0.155743 30 30 30
-0.010975 0.095987 0.153803 30 30 30
-0.005429 0.094719 0.154658 30 30 30
0.003437 0.095376 0.154345 30 30 30
0.012104 0.095474 0.154221 30 30 30
0.014978 0.094980 0.154900 30 30 30
-0.008592 0.098862 0.152471 30 30 30
-0.007236 0.097866 0.152654 30 30 30
-0.003184 0.096462 0.154122 30 30 30
0.000467 0.095797 0.152675 30 30 30
0.012196 0.097882 0.153267 30 30 30
0.015317 0.097075 0.152771 30 30 30
-0.009940 0.100411 0.151245 30 30 30
-0.005521 0.101651 0.152050 30 30 30
0.002080 0.101255 0.153406 30 30 30
0.017323 0.099667 0.152691 30 30 30
-0.002906 0.102723 0.150796 30 30 30
0.005784 0.102405 0.151671 30 30 30
0.012372 0.102349 0.151203 30 30 30
0.002238 0.104765 0.149632 30 30 30
0.004907 0.105054 0.150218 30 30 30
0.008702 0.106544 0.150465 30 30 30
0.015817 0.104958 0.150709 30 30 30
0.018644 0.107088 0.148836 30 30 30
0.008858 0.109819 0.148160 30 30 30
0.013816 0.108988 0.149370 30 30 30
0.013810 0.111803 0.147329 30 30 30
0.015770 -0.026895 0.195225 30 30 30
0.015506 -0.023319 0.194899 30 30 30
0.018582 -0.025426 0.195467 30 30 30
0.003033 -0.021063 0.193921 30 30 30
0.007544 -0.020909 0.194346 30 30 30
0.013391 -0.022776 0.194931 30 30 30
0.017701 -0.021793 0.195064 30 30 30
-0.005521 -0.019125 0.193078 30 30 30
-0.002422 -0.018141 0.193124 30 30 30
0.007526 -0.018700 0.194053 30 30 30
0.014737 -0.018037 0.193253 30 30 30
-0.006546 -0.016408 0.192259 30 30 30
-0.004851 -0.015014 0.191942 30 30 30
0.002378 -0.014765 0.193755 30 30 30
0.007596 -0.015816 0.193591 30 30 30
0.012248 -0.016267 0.193005 30 30 30
0.018765 -0.016282 0.193889 30 30 30
0.022419 -0.014596 0.193258 30 30 30
-0.007984 -0.012244 0.192470 30 30 30
-0.003333 -0.011618 0.192480 30 30 30
-0.000573 -0.011893 0.193144 30 30 30
0.001806 -0.012663 0.192557 30 30 30
0.007079 -0.012311 0.190856 30 30 30
0.010903 -0.011525 0.192054 30 30 30
0.014945 -0.011887 0.192253 30 30 30
0.017505 -0.013671 0.193154 30 30 30
0.019744 -0.011580 0.192438 30 30 30
0.022329 -0.011874 0.191663 30 30 30
-0.007030 -0.009414 0.190426 30 30 30
-0.000127 -0.008506 0.191857 30 30 30
0.023662 -0.010344 0.191299 30 30 30
0.003780 -0.007849 0.191370 30 30 30
0.012620 -0.006239 0.191257 30 30 30
0.026463 -0.006163 0.188764 30 30 30
0.068263 -0.007518 0.190042 30 30 30
-0.003412 -0.005268 0.190104 30 30 30
0.003598 -0.004649 0.190375 30 30 30
0.024852 -0.004184 0.190906 30 30 30
0.062734 -0.004756 0.188050 30 30 30
0.064590 -0.003570 0.190108 30 30 30
0.067359 -0.003408 0.189532 30 30 30
0.069597 -0.005488 0.188718 30 30 30
0.054306 0.000061 0.188286 30 30 30
0.066252 -0.002236 0.187528 30 30 30
0.068882 -0.001694 0.188901 30 30 30
0.070116 -0.001277 0.188569 30 30 30
0.074373 -0.000929 0.187654 30 30 30
0.059633 0.002034 0.188000 30 30 30
0.062592 0.002712 0.187118 30 30 30
0.066795 0.001311 0.186302 30 30 30
0.070976 0.001786 0.187745 30 30 30
-0.003047 0.004081 0.187155 30 30 30
0.067804 0.004824 0.186830 30 30 30
0.070502 0.004616 0.187941 30 30 30
0.076430 0.003423 0.185784 30 30 30
0.079404 0.003533 0.185493 30 30 30
0.082200 0.004785 0.184939 30 30 30
0.050225 0.006091 0.186768 30 30 30
0.062515 0.006977 0.186584 30 30 30
0.067917 0.007394 0.187068 30 30 30
0.073624 0.007519 0.186193 30 30 30
0.076229 0.006677 0.185888 30 30 30
0.078301 0.008528 0.184483 30 30 30
0.079890 0.009643 0.184915 30 30 30
0.069823 0.011902 0.184832 30 30 30
0.073195 0.011342 0.183328 30 30 30
0.076196 0.012024 0.184677 30 30 30
0.079188 0.012680 0.183767 30 30 30
0.076591 0.016821 0.183938 30 30 30
0.084211 0.015777 0.182043 30 30 30
0.072648 0.017585 0.182696 30 30 30
0.077204 0.019157 0.181757 30 30 30
0.081857 0.019743 0.181798 30 30 30
-0.030753 0.024991 0.178604 30 30 30
-0.022785 0.025111 0.181235 30 30 30
-0.032221 0.027710 0.178791 30 30 30
0.069383 0.027157 0.179362 30 30 30
-0.035260 0.030103 0.177221 30 30 30
-0.029971 0.029945 0.177257 30 30 30
-0.032972 0.032139 0.178560 30 30 30
-0.032522 0.035536 0.175891 30 30 30
-0.027909 0.034967 0.177002 30 30 30
-0.036997 0.038058 0.175645 30 30 30
-0.029383 0.039352 0.175859 30 30 30
-0.026507 0.039368 0.176253 30 30 30
-0.040110 0.041291 0.173916 30 30 30
-0.034567 0.040386 0.174005 30 30 30
-0.028751 0.042892 0.174707 30 30 30
-0.023394 0.044243 0.174814 30 30 30
-0.035963 0.045915 0.172222 30 30 30
-0.037097 0.050371 0.171960 30 30 30
-0.033242 0.049132 0.173270 30 30 30
-0.030369 0.049502 0.172440 30 30 30
-0.033947 0.054012 0.171142 30 30 30
-0.029822 0.052194 0.170118 30 30 30
-0.026646 0.054009 0.170484 30 30 30
0.066457 0.052545 0.172411 30 30 30
0.068179 0.053793 0.169334 30 30 30
-0.034918 0.055767 0.170183 30 30 30
-0.020806 0.054827 0.170294 30 30 30
0.072277 0.055865 0.168780 30 30 30
0.071627 0.058374 0.169798 30 30 30
0.080683 0.059120 0.169936 30 30 30
0.068185 0.060293 0.169632 30 30 30
0.080046 0.062261 0.168492 30 30 30
0.084261 0.062489 0.167161 30 30 30
0.066145 0.064469 0.167943 30 30 30
0.073238 0.065108 0.165604 30 30 30
0.077869 0.064360 0.167913 30 30 30
0.082880 0.063912 0.166838 30 30 30
0.066417 0.068435 0.167030 30 30 30
0.069569 0.066205 0.166065 30 30 30
0.073256 0.067623 0.166187 30 30 30
0.076108 0.068276 0.167097 30 30 30
0.063322 0.070186 0.165678 30 30 30
0.071037 0.068592 0.164396 30 30 30
0.076314 0.068720 0.166003 30 30 30
0.049185 0.073965 0.163716 30 30 30
0.060894 0.072766 0.164933 30 30 30
0.066958 0.071143 0.164097 30 30 30
0.071442 0.072981 0.163971 30 30 30
0.075399 0.071565 0.164270 30 30 30
0.076188 0.072944 0.163755 30 30 30
0.080679 0.071035 0.163495 30 30 30
0.051978 0.075428 0.162592 30 30 30
0.062215 0.076809 0.162873 30 30 30
0.068501 0.076299 0.164539 30 30 30
0.076393 0.076286 0.162272 30 30 30
0.080847 0.074620 0.162239 30 30 30
-0.003377 0.079064 0.162828 30 30 30
0.026116 0.079040 0.161534 30 30 30
0.058504 0.078280 0.163027 30 30 30
0.075876 0.078107 0.161309 30 30 30
-0.004105 0.081589 0.160691 30 30 30
0.010705 0.082093 0.162613 30 30 30
0.025377 0.082507 0.162572 30 30 30
0.064611 0.082145 0.162075 30 30 30
0.071099 0.081043 0.161077 30 30 30
-0.005199 0.083422 0.159861 30 30 30
-0.001700 0.084403 0.159643 30 30 30
0.006234 0.083741 0.161015 30 30 30
0.009590 0.085253 0.160813 30 30 30
0.018112 0.085734 0.161735 30 30 30
0.024716 0.083687 0.161951 30 30 30
0.058690 0.082954 0.160857 30 30 30
0.063212 0.084335 0.160033 30 30 30
0.066069 0.085198 0.160161 30 30 30
0.071051 0.082911 0.160441 30 30 30
-0.005856 0.087201 0.158166 30 30 30
-0.003374 0.087647 0.158611 30 30 30
0.004033 0.087105 0.160135 30 30 30
0.019603 0.088150 0.159813 30 30 30
0.022243 0.087340 0.160411 30 30 30
0.068793 0.085837 0.158906 30 30 30
-0.007623 0.089523 0.159646 30 30 30
0.002257 0.090080 0.158686 30 30 30
0.012075 0.089019 0.159615 30 30 30
0.013858 0.089870 0.157558 30 30 30
0.023640 0.090340 0.159139 30 30 30
-0.008706 0.091853 0.157670 30 30 30
-0.002558 0.092682 0.157438 30 30 30
-0.001496 0.093137 0.156236 30 30 30
0.005850 0.093491 0.157926 30 30 30
0.008095 0.091965 0.157643 30 30 30
0.013979 0.093662 0.157708 30 30 30
0.024103 0.092882 0.158210 30 30 30
-0.009572 0.094076 0.156232 30 30 30
-0.003707 0.096255 0.155385 30 30 30
-0.000983 0.095595 0.157036 30 30 30
0.004335 0.094340 0.157083 30 30 30
0.011289 0.095011 0.156867 30 30 30
0.014239 0.095205 0.157621 30 30 30
0.018835 0.094846 0.156418 30 30 30
0.005708 0.097987 0.155422 30 30 30
0.009336 0.097396 0.155543 30 30 30
0.010894 0.099225 0.155835 30 30 30
0.013153 0.099247 0.155659 30 30 30
0.011366 0.100263 0.154489 30 30 30
0.014690 0.099911 0.154419 30 30 30
0.021624 0.100146 0.154064 30 30 30
0.014671 0.103096 0.153545 30 30 30
0.017498 0.103143 0.153012 30 30 30
0.009256 -0.014127 0.194396 30 30 30
0.020721 -0.013635 0.195475 30 30 30
0.013877 -0.013027 0.194816 30 30 30
0.018160 -0.013120 0.195224 30 30 30
0.018517 -0.010479 0.195214 30 30 30
0.021714 -0.012668 0.194060 30 30 30
0.007933 -0.008508 0.193583 30 30 30
0.012333 -0.009396 0.194271 30 30 30
0.018940 -0.009390 0.194290 30 30 30
0.023613 -0.008601 0.193568 30 30 30
-0.007441 -0.005673 0.192361 30 30 30
-0.002852 -0.006553 0.192627 30 30 30
0.000740 -0.007322 0.193154 30 30 30
0.005903 -0.006982 0.192322 30 30 30
0.009908 -0.007699 0.193144 30 30 30
0.014514 -0.006809 0.193392 30 30 30
0.016983 -0.005073 0.192534 30 30 30
0.020210 -0.006312 0.193648 30 30 30
0.024932 -0.005843 0.193450 30 30 30
-0.006354 -0.003385 0.192406 30 30 30
0.000294 -0.002699 0.191108 30 30 30
0.002509 -0.004555 0.191593 30 30 30
0.005897 -0.002077 0.192400 30 30 30
0.009492 -0.003406 0.191880 30 30 30
0.017300 -0.002168 0.192251 30 30 30
0.061754 -0.004832 0.191362 30 30 30
-0.002587 0.000919 0.191066 30 30 30
0.003196 0.000603 0.191448 30 30 30
0.011585 -0.000127 0.192621 30 30 30
0.014661 -0.000715 0.192289 30 30 30
0.025424 -0.001316 0.192141 30 30 30
0.042280 0.000690 0.192079 30 30 30
0.061298 -0.001857 0.190995 30 30 30
0.000465 0.001365 0.191462 30 30 30
0.046665 0.001548 0.191220 30 30 30
0.057082 0.002940 0.191573 30 30 30
0.057637 0.003034 0.189796 30 30 30
0.061464 0.002645 0.189976 30 30 30
0.063503 0.001801 0.189301 30 30 30
-0.002828 0.004117 0.188924 30 30 30
0.053908 0.004387 0.190046 30 30 30
0.059604 0.009007 0.188568 30 30 30
0.062813 0.007332 0.188964 30 30 30
0.063873 0.007751 0.189235 30 30 30
-0.008081 0.011226 0.188191 30 30 30
0.066053 0.010805 0.187485 30 30 30
0.071510 0.010293 0.186969 30 30 30
0.072855 0.009077 0.186779 30 30 30
-0.008884 0.013721 0.187525 30 30 30
0.060081 0.013527 0.186499 30 30 30
0.066460 0.014641 0.187085 30 30 30
0.072694 0.013812 0.186223 30 30 30
0.066344 0.017951 0.186014 30 30 30
0.069272 0.016117 0.185761 30 30 30
0.071857 0.015676 0.185294 30 30 30
0.076043 0.016647 0.184801 30 30 30
0.068759 0.020779 0.185391 30 30 30
0.074120 0.019739 0.185112 30 30 30
0.071784 0.024020 0.184701 30 30 30
0.076606 0.021074 0.183369 30 30 30
0.074100 0.025600 0.183384 30 30 30
-0.025916 0.026810 0.181301 30 30 30
-0.022560 0.028423 0.181449 30 30 30
-0.029819 0.029875 0.180355 30 30 30
-0.026204 0.032234 0.180552 30 30 30
-0.020458 0.031899 0.180471 30 30 30
0.069566 0.030885 0.181158 30 30 30
-0.029621 0.033657 0.179185 30 30 30
-0.019819 0.035201 0.180768 30 30 30
-0.027229 0.035069 0.178308 30 30 30
-0.025089 0.035549 0.179321 30 30 30
-0.021756 0.036973 0.177726 30 30 30
-0.024150 0.041109 0.179307 30 30 30
-0.023077 0.038934 0.179649 30 30 30
-0.019482 0.038634 0.179758 30 30 30
-0.028787 0.041056 0.177714 30 30 30
-0.026070 0.041694 0.178420 30 30 30
-0.022099 0.041846 0.177471 30 30 30
-0.026489 0.046428 0.176057 30 30 30
-0.022560 0.045989 0.177516 30 30 30
-0.019452 0.046083 0.177005 30 30 30
-0.030328 0.047734 0.175082 30 30 30
-0.024855 0.048319 0.173899 30 30 30
-0.020718 0.048625 0.175361 30 30 30
0.068875 0.048759 0.176581 30 30 30
-0.020367 0.050872 0.174189 30 30 30
-0.025025 0.052439 0.173201 30 30 30
-0.023292 0.054536 0.173264 30 30 30
-0.018440 0.053697 0.175181 30 30 30
0.065948 0.052480 0.173429 30 30 30
0.071191 0.053735 0.172924 30 30 30
-0.015658 0.057453 0.172761 30 30 30
0.065284 0.056630 0.173978 30 30 30
0.070971 0.056011 0.173284 30 30 30
0.072524 0.056133 0.174219 30 30 30
0.064599 0.059660 0.171423 30 30 30
0.068485 0.060672 0.172607 30 30 30
0.073930 0.059186 0.171924 30 30 30
0.061147 0.062191 0.172030 30 30 30
0.071849 0.062105 0.171688 30 30 30
0.073922 0.061089 0.170890 30 30 30
0.063637 0.065912 0.169922 30 30 30
0.067838 0.064336 0.170041 30 30 30
0.076908 0.065274 0.168467 30 30 30
0.056591 0.068738 0.168923 30 30 30
0.064018 0.067259 0.170331 30 30 30
0.070812 0.067254 0.168764 30 30 30
0.055135 0.071774 0.168700 30 30 30
0.059503 0.069110 0.167329 30 30 30
0.062424 0.070505 0.168900 30 30 30
0.069093 0.070161 0.167301 30 30 30
0.070978 0.069194 0.167282 30 30 30
-0.002473 0.073985 0.167420 30 30 30
0.058775 0.072467 0.167681 30 30 30
0.061753 0.073368 0.168412 30 30 30
0.064914 0.073999 0.166428 30 30 30
0.066581 0.073090 0.166370 30 30 30
0.009338 0.077681 0.166435 30 30 30
0.045693 0.077002 0.166363 30 30 30
0.056318 0.076808 0.166020 30 30 30
0.059894 0.076778 0.166369 30 30 30
0.062824 0.075247 0.167088 30 30 30
-0.003088 0.079752 0.165055 30 30 30
0.001929 0.078018 0.165551 30 30 30
0.006564 0.079179 0.166018 30 30 30
0.013659 0.079628 0.165834 30 30 30
0.041538 0.078232 0.166583 30 30 30
0.056555 0.079983 0.165013 30 30 30
0.060182 0.079771 0.164669 30 30 30
0.064531 0.079152 0.164109 30 30 30
-0.004222 0.081483 0.164577 30 30 30
-0.002032 0.083706 0.165270 30 30 30
0.000714 0.081201 0.164880 30 30 30
0.006342 0.083088 0.163409 30 30 30
0.007626 0.082895 0.165155 30 30 30
0.017804 0.081496 0.163844 30 30 30
0.021236 0.083323 0.163030 30 30 30
-0.007076 0.085001 0.163786 30 30 30
0.002959 0.084034 0.163041 30 30 30
0.007044 0.084002 0.164543 30 30 30
0.010588 0.086185 0.164241 30 30 30
0.014097 0.084352 0.163613 30 30 30
0.023795 0.085356 0.163410 30 30 30
0.002196 0.086740 0.163592 30 30 30
0.013872 0.088726 0.162461 30 30 30
0.021635 0.087232 0.163984 30 30 30
0.002776 0.090221 0.160798 30 30 30
0.017764 0.090662 0.161025 30 30 30
0.024108 0.089963 0.161311 30 30 30
0.008904 0.092247 0.160513 30 30 30
0.018179 0.094658 0.159873 30 30 30
0.021355 0.092796 0.160706 30 30 30
0.022505 0.095739 0.158778 30 30 30
0.011753 -0.002328 0.194356 30 30 30
0.015420 -0.001404 0.194362 30 30 30
0.001086 0.001075 0.193370 30 30 30
0.009453 0.000991 0.192868 30 30 30
0.016534 0.001883 0.193798 30 30 30
0.020576 -0.001191 0.193413 30 30 30
0.030728 0.001087 0.194770 30 30 30
0.034760 -0.000602 0.193704 30 30 30
0.038785 -0.000351 0.195499 30 30 30
0.039811 0.001527 0.193675 30 30 30
0.054009 0.001028 0.192597 30 30 30
0.007537 0.003166 0.193656 30 30 30
0.013301 0.003664 0.193561 30 30 30
-0.002938 0.005773 0.191663 30 30 30
-0.000484 0.006275 0.192471 30 30 30
0.000480 0.004641 0.192506 30 30 30
0.004358 0.005614 0.192562 30 30 30
0.050100 0.006869 0.192738 30 30 30
0.054981 0.005517 0.191524 30 30 30
-0.004664 0.008789 0.192779 30 30 30
0.050877 0.008525 0.192989 30 30 30
0.056974 0.008788 0.190711 30 30 30
0.060263 0.009866 0.189889 30 30 30
-0.006541 0.012604 0.190399 30 30 30
0.057437 0.013207 0.191399 30 30 30
0.059523 0.010677 0.189975 30 30 30
0.058130 0.016130 0.189288 30 30 30
0.063387 0.014943 0.188452 30 30 30
-0.009851 0.018150 0.188815 30 30 30
0.061160 0.018662 0.187482 30 30 30
0.064717 0.017333 0.187423 30 30 30
-0.011184 0.020722 0.188210 30 30 30
0.065137 0.019248 0.187463 30 30 30
0.065405 0.023578 0.185412 30 30 30
0.064397 0.025140 0.186741 30 30 30
0.067994 0.027172 0.187038 30 30 30
-0.018179 0.027679 0.185262 30 30 30
0.066432 0.027736 0.185728 30 30 30
0.068251 0.028164 0.186264 30 30 30
0.070444 0.029601 0.183446 30 30 30
-0.017807 0.035877 0.181183 30 30 30
0.068565 0.035881 0.181336 30 30 30
-0.020249 0.040982 0.179926 30 30 30
-0.015896 0.039642 0.182133 30 30 30
0.068462 0.041159 0.180949 30 30 30
-0.017775 0.043270 0.178695 30 30 30
-0.016325 0.045630 0.179570 30 30 30
-0.015818 0.049924 0.179088 30 30 30
0.067121 0.050619 0.179003 30 30 30
-0.018927 0.051570 0.177117 30 30 30
-0.016508 0.051464 0.177484 30 30 30
-0.019887 0.054937 0.176031 30 30 30
-0.016143 0.055786 0.176470 30 30 30
0.066829 0.054239 0.175688 30 30 30
-0.021601 0.057014 0.174970 30 30 30
0.066672 0.057624 0.175486 30 30 30
0.069612 0.056055 0.174779 30 30 30
-0.013912 0.060963 0.174858 30 30 30
-0.011346 0.062890 0.172712 30 30 30
0.064037 0.063483 0.173224 30 30 30
-0.008260 0.066882 0.173274 30 30 30
0.057052 0.067000 0.172684 30 30 30
0.060430 0.065335 0.173249 30 30 30
0.062029 0.065914 0.172035 30 30 30
0.058214 0.069953 0.171327 30 30 30
-0.002206 0.073411 0.171332 30 30 30
-0.004424 0.076259 0.170666 30 30 30
0.002258 0.075546 0.170677 30 30 30
0.051154 0.076267 0.171087 30 30 30
0.053765 0.074515 0.169357 30 30 30
0.055034 0.075185 0.169193 30 30 30
-0.001509 0.077858 0.167809 30 30 30
0.003380 0.077839 0.168384 30 30 30
0.005732 0.076521 0.169564 30 30 30
0.048523 0.076308 0.168619 30 30 30
0.054841 0.076787 0.168538 30 30 30
0.009219 0.080836 0.168322 30 30 30
0.013620 0.079319 0.169408 30 30 30
0.016831 0.081100 0.167673 30 30 30
0.034021 0.080300 0.168385 30 30 30
0.036841 0.080938 0.168739 30 30 30
0.017868 0.083186 0.166864 30 30 30
0.022123 0.083959 0.166303 30 30 30
0.025467 0.083729 0.167448 30 30 30
0.029531 0.081774 0.166512 30 30 30
0.032004 0.084513 0.167049 30 30 30
0.011978 0.084400 0.165502 30 30 30
0.021194 -0.001243 0.197559 30 30 30
0.028669 -0.002680 0.197173 30 30 30
0.031805 -0.000488 0.197902 30 30 30
0.026055 0.000895 0.196682 30 30 30
0.032450 0.002116 0.195696 30 30 30
0.038486 0.001510 0.197187 30 30 30
0.018422 0.004373 0.196416 30 30 30
0.021478 0.003112 0.195809 30 30 30
0.034585 0.003903 0.196572 30 30 30
0.036998 0.005204 0.196391 30 30 30
-0.000807 0.007372 0.195009 30 30 30
0.010295 0.006314 0.194550 30 30 30
0.014645 0.007273 0.196549 30 30 30
0.041785 0.005513 0.195146 30 30 30
-0.002883 0.010032 0.193239 30 30 30
0.004943 0.008673 0.194286 30 30 30
0.007456 0.009335 0.195637 30 30 30
0.050458 0.011628 0.194663 30 30 30
0.053841 0.012951 0.191809 30 30 30
0.055229 0.011127 0.192637 30 30 30
-0.007345 0.016193 0.191122 30 30 30
-0.003799 0.015134 0.193354 30 30 30
0.053036 0.016185 0.193247 30 30 30
-0.007191 0.019062 0.192541 30 30 30
0.059306 0.019035 0.191913 30 30 30
0.062950 0.021009 0.189309 30 30 30
-0.012878 0.023871 0.189219 30 30 30
0.061221 0.024476 0.189572 30 30 30
-0.012097 0.026663 0.189742 30 30 30
-0.014686 0.029326 0.186689 30 30 30
0.065752 0.031145 0.187936 30 30 30
-0.018295 0.033207 0.185394 30 30 30
-0.015414 0.032285 0.186805 30 30 30
0.065383 0.034397 0.187496 30 30 30
-0.015877 0.035002 0.185285 30 30 30
0.066396 0.037256 0.186648 30 30 30
0.067005 0.036119 0.185931 30 30 30
-0.014697 0.038064 0.183972 30 30 30
-0.013343 0.038172 0.186460 30 30 30
0.066783 0.037317 0.185700 30 30 30
0.066358 0.041382 0.185395 30 30 30
0.066585 0.040943 0.185132 30 30 30
-0.014256 0.043310 0.183409 30 30 30
0.066276 0.043398 0.182984 30 30 30
-0.013433 0.049384 0.182354 30 30 30
0.067390 0.049618 0.180834 30 30 30
-0.016969 0.051182 0.180054 30 30 30
0.065522 0.053602 0.181130 30 30 30
0.066712 0.056084 0.178458 30 30 30
-0.015176 0.058811 0.177064 30 30 30
0.063333 0.057106 0.178346 30 30 30
-0.012262 0.060618 0.177672 30 30 30
0.060879 0.060305 0.178011 30 30 30
-0.015391 0.063013 0.176580 30 30 30
-0.008508 0.065297 0.176902 30 30 30
0.057881 0.064352 0.176329 30 30 30
0.061492 0.062984 0.176079 30 30 30
-0.007823 0.068347 0.174099 30 30 30
0.054373 0.068937 0.174343 30 30 30
0.056030 0.070754 0.174872 30 30 30
0.058603 0.068925 0.175702 30 30 30
-0.003526 0.073379 0.173226 30 30 30
0.051201 0.072480 0.174711 30 30 30
-0.000980 0.075847 0.173592 30 30 30
0.000864 0.074822 0.173435 30 30 30
0.005626 0.075437 0.173179 30 30 30
0.011233 0.076993 0.173018 30 30 30
0.045607 0.076199 0.173691 30 30 30
0.001218 0.077631 0.170772 30 30 30
0.018304 0.079074 0.172862 30 30 30
0.036567 0.079213 0.170657 30 30 30
0.043524 0.078366 0.173421 30 30 30
0.051167 0.077015 0.171415 30 30 30
0.014338 0.080368 0.171944 30 30 30
0.019721 0.082572 0.170540 30 30 30
0.023044 0.081600 0.170502 30 30 30
0.030018 0.081154 0.170298 30 30 30
0.040286 0.081609 0.171052 30 30 30
0.044599 0.080476 0.172740 30 30 30
0.017481 0.003155 0.199432 30 30 30
0.020787 0.005424 0.197756 30 30 30
0.026032 0.005929 0.199103 30 30 30
0.037026 0.006086 0.197353 30 30 30
0.012299 0.008506 0.198053 30 30 30
0.015351 0.009072 0.199231 30 30 30
0.019572 0.007800 0.198552 30 30 30
0.040003 0.007464 0.198611 30 30 30
0.047292 0.007937 0.198735 30 30 30
0.010437 0.010010 0.197116 30 30 30
0.044923 0.011353 0.197506 30 30 30
-0.000587 0.012938 0.195271 30 30 30
0.002411 0.012345 0.196831 30 30 30
-0.004474 0.015448 0.194395 30 30 30
-0.001460 0.015841 0.195795 30 30 30
0.053495 0.018599 0.194251 30 30 30
0.057020 0.022277 0.194218 30 30 30
0.059235 0.020668 0.192606 30 30 30
-0.009245 0.024408 0.193401 30 30 30
0.058399 0.025624 0.192476 30 30 30
0.062081 0.029838 0.190851 30 30 30
-0.011928 0.033085 0.189892 30 30 30
-0.011511 0.036839 0.189341 30 30 30
0.065087 0.036685 0.189144 30 30 30
-0.015230 0.038676 0.187311 30 30 30
-0.014930 0.043400 0.186937 30 30 30
0.064238 0.041976 0.188039 30 30 30
-0.012548 0.043695 0.185940 30 30 30
0.064615 0.045320 0.186251 30 30 30
-0.011984 0.048068 0.185029 30 30 30
-0.012416 0.050506 0.183998 30 30 30
0.065858 0.050010 0.184033 30 30 30
-0.014681 0.056853 0.181600 30 30 30
0.063453 0.055696 0.182561 30 30 30
0.065785 0.055642 0.181600 30 30 30
-0.012112 0.059657 0.181764 30 30 30
0.063481 0.059068 0.181542 30 30 30
-0.011746 0.061986 0.180226 30 30 30
0.058806 0.062334 0.180532 30 30 30
-0.012761 0.064025 0.178536 30 30 30
-0.009860 0.066342 0.179287 30 30 30
0.054591 0.067484 0.178744 30 30 30
0.058119 0.067326 0.179138 30 30 30
-0.006206 0.071865 0.178394 30 30 30
0.053194 0.069432 0.177552 30 30 30
-0.002809 0.075038 0.176726 30 30 30
0.049376 0.073762 0.177034 30 30 30
0.054050 0.074171 0.175419 30 30 30
0.000134 0.075918 0.175373 30 30 30
0.009269 0.075934 0.176155 30 30 30
0.042007 0.077302 0.174285 30 30 30
0.043430 0.076340 0.176965 30 30 30
0.050373 0.075833 0.175656 30 30 30
0.006116 0.079727 0.174507 30 30 30
0.014307 0.080731 0.174922 30 30 30
0.031742 0.080543 0.175083 30 30 30
0.035806 0.079436 0.174336 30 30 30
0.039522 0.077884 0.174263 30 30 30
0.022952 0.080854 0.173928 30 30 30
0.026154 0.081757 0.175217 30 30 30
0.027874 0.081754 0.173540 30 30 30
0.022886 0.083671 0.172714 30 30 30
0.017602 0.006816 0.202001 30 30 30
0.038349 0.006421 0.201406 30 30 30
0.007788 0.010624 0.201550 30 30 30
0.013215 0.009052 0.202168 30 30 30
0.021863 0.009603 0.201146 30 30 30
0.024664 0.008427 0.201991 30 30 30
0.036428 0.008888 0.200948 30 30 30
0.042234 0.010013 0.199954 30 30 30
0.045899 0.008737 0.200327 30 30 30
0.016849 0.012066 0.200411 30 30 30
0.019891 0.010949 0.200462 30 30 30
0.002549 0.015779 0.198631 30 30 30
0.006320 0.014941 0.199214 30 30 30
0.009897 0.014449 0.199760 30 30 30
0.046447 0.014587 0.199449 30 30 30
-0.000533 0.018244 0.198557 30 30 30
0.050301 0.017513 0.198351 30 30 30
0.052390 0.018627 0.198138 30 30 30
0.053054 0.019730 0.196579 30 30 30
-0.004185 0.023160 0.197201 30 30 30
0.057920 0.025908 0.195832 30 30 30
-0.009727 0.028879 0.194194 30 30 30
0.055962 0.027992 0.194968 30 30 30
-0.012273 0.032864 0.192716 30 30 30
-0.010007 0.030838 0.193819 30 30 30
0.060257 0.031627 0.193124 30 30 30
0.061531 0.031132 0.194507 30 30 30
-0.008988 0.036210 0.192822 30 30 30
-0.010099 0.037654 0.192798 30 30 30
0.062931 0.036321 0.191270 30 30 30
0.063137 0.042670 0.190206 30 30 30
-0.009990 0.045048 0.188887 30 30 30
0.063668 0.045593 0.188283 30 30 30
-0.013994 0.047305 0.187022 30 30 30
-0.010568 0.048269 0.187440 30 30 30
-0.010667 0.052546 0.187674 30 30 30
0.062675 0.052861 0.187269 30 30 30
-0.013228 0.054492 0.187258 30 30 30
0.063629 0.054487 0.185590 30 30 30
-0.012277 0.057056 0.184867 30 30 30
-0.013544 0.058937 0.183321 30 30 30
0.059577 0.061251 0.184290 30 30 30
-0.008627 0.062932 0.182385 30 30 30
-0.006433 0.066503 0.181214 30 30 30
0.054294 0.065290 0.183621 30 30 30
-0.008175 0.070740 0.179476 30 30 30
-0.002219 0.072498 0.181615 30 30 30
0.049285 0.072290 0.180639 30 30 30
-0.000368 0.074220 0.178521 30 30 30
0.004739 0.073634 0.180998 30 30 30
0.007837 0.074784 0.179531 30 30 30
0.046724 0.075183 0.179830 30 30 30
0.052780 0.074125 0.179163 30 30 30
0.006108 0.077174 0.178108 30 30 30
0.010901 0.077649 0.178574 30 30 30
0.016919 0.078185 0.178136 30 30 30
0.036119 0.078334 0.178711 30 30 30
0.040688 0.077015 0.178811 30 30 30
0.044242 0.076553 0.180073 30 30 30
0.015664 0.080815 0.176640 30 30 30
0.022190 0.079513 0.178985 30 30 30
0.027974 0.081765 0.178167 30 30 30
0.033782 0.081713 0.177633 30 30 30
0.021412 0.081946 0.176659 30 30 30
0.027427 0.084237 0.176553 30 30 30
0.026889 0.006352 0.204597 30 30 30
0.032483 0.007046 0.204052 30 30 30
0.011600 0.010069 0.202364 30 30 30
0.024492 0.009692 0.202502 30 30 30
0.028351 0.010968 0.203230 30 30 30
0.043169 0.010160 0.202840 30 30 30
0.011548 0.013501 0.201072 30 30 30
0.019992 0.011953 0.202017 30 30 30
0.023047 0.011930 0.203331 30 30 30
0.026963 0.012523 0.203929 30 30 30
0.035902 0.012003 0.203908 30 30 30
0.042986 0.012978 0.202823 30 30 30
0.003482 0.016567 0.200655 30 30 30
0.007556 0.015925 0.201814 30 30 30
0.012321 0.017121 0.202549 30 30 30
0.014237 0.014588 0.201728 30 30 30
0.046450 0.016800 0.201081 30 30 30
0.009742 0.017825 0.202221 30 30 30
0.045254 0.018285 0.201247 30 30 30
0.048978 0.019402 0.199691 30 30 30
0.048054 0.022156 0.200875 30 30 30
-0.003560 0.024114 0.199444 30 30 30
0.052813 0.022740 0.199327 30 30 30
-0.005759 0.027783 0.197184 30 30 30
0.053292 0.028168 0.198327 30 30 30
-0.007004 0.032532 0.196854 30 30 30
0.056775 0.032881 0.196800 30 30 30
-0.008318 0.035360 0.194188 30 30 30
0.059713 0.038113 0.195796 30 30 30
0.061815 0.039320 0.194113 30 30 30
-0.007903 0.041422 0.193614 30 30 30
-0.009939 0.044271 0.192384 30 30 30
-0.006584 0.044898 0.193485 30 30 30
0.061825 0.043886 0.192147 30 30 30
-0.008900 0.048127 0.191105 30 30 30
0.061502 0.047513 0.191876 30 30 30
0.060462 0.050575 0.190771 30 30 30
-0.011011 0.051752 0.189344 30 30 30
0.061222 0.053440 0.189559 30 30 30
-0.012145 0.056124 0.187333 30 30 30
0.059625 0.055756 0.188917 30 30 30
0.059500 0.059522 0.187124 30 30 30
-0.010563 0.061765 0.185835 30 30 30
0.056744 0.060458 0.188851 30 30 30
0.057702 0.060780 0.186214 30 30 30
-0.007085 0.063129 0.187961 30 30 30
0.059960 0.063037 0.186743 30 30 30
-0.005931 0.066239 0.186826 30 30 30
0.055688 0.067695 0.185188 30 30 30
-0.002636 0.070323 0.185143 30 30 30
0.049451 0.070795 0.183646 30 30 30
0.052647 0.068865 0.185450 30 30 30
0.000026 0.074138 0.183676 30 30 30
0.049747 0.071071 0.183224 30 30 30
0.002542 0.075620 0.183807 30 30 30
0.009297 0.074499 0.183297 30 30 30
0.047422 0.074630 0.183490 30 30 30
0.008129 0.079040 0.181387 30 30 30
0.011921 0.077345 0.181246 30 30 30
0.019752 0.078999 0.180606 30 30 30
0.023360 0.078815 0.182262 30 30 30
0.046829 0.077797 0.181980 30 30 30
0.023131 0.081581 0.181285 30 30 30
0.039573 0.080787 0.179510 30 30 30
0.027906 0.083601 0.180610 30 30 30
0.012192 0.014244 0.205435 30 30 30
0.024138 0.015270 0.206480 30 30 30
0.030266 0.013696 0.205680 30 30 30
0.032848 0.014647 0.206025 30 30 30
0.042777 0.013234 0.204936 30 30 30
0.008194 0.016165 0.205507 30 30 30
0.010205 0.016061 0.206067 30 30 30
0.015721 0.017836 0.205629 30 30 30
0.019372 0.016244 0.205398 30 30 30
0.037579 0.016765 0.205402 30 30 30
0.043548 0.017358 0.203128 30 30 30
0.005624 0.020191 0.202357 30 30 30
0.008905 0.019934 0.203926 30 30 30
0.002539 0.021572 0.202971 30 30 30
0.045476 0.022512 0.203415 30 30 30
0.048661 0.022219 0.202958 30 30 30
-0.001401 0.024243 0.202171 30 30 30
-0.001633 0.027109 0.201061 30 30 30
0.053903 0.028822 0.200659 30 30 30
-0.006051 0.031717 0.200407 30 30 30
0.051225 0.029494 0.200568 30 30 30
0.052264 0.030634 0.199886 30 30 30
