ply
format ascii 1.0
element vertex 1266
property float x
property float y
property float z
property uchar red
property uchar green
property uchar blue
end_header
-0.350522 -0.069907 0.374074 30 30 30
-0.324611 -0.070214 0.374059 30 30 30
-0.301797 -0.071451 0.374355 30 30 30
-0.296923 -0.071638 0.374389 30 30 30
-0.288715 -0.070845 0.374095 30 30 30
-0.285372 -0.070801 0.374058 30 30 30
-0.279187 -0.069582 0.373632 30 30 30
-0.248309 -0.071272 0.374040 30 30 30
-0.240488 -0.071283 0.374003 30 30 30
-0.230167 -0.071412 0.373999 30 30 30
-0.228380 -0.070594 0.373717 30 30 30
-0.223763 -0.071308 0.373937 30 30 30
-0.221138 -0.071396 0.373953 30 30 30
-0.217800 -0.069176 0.373198 30 30 30
-0.210802 -0.069410 0.373242 30 30 30
-0.203698 -0.069699 0.373308 30 30 30
-0.195569 -0.071903 0.373999 30 30 30
-0.169928 -0.070910 0.373545 30 30 30
-0.158714 -0.070894 0.373487 30 30 30
-0.145294 -0.069450 0.372947 30 30 30
-0.120664 -0.071310 0.372048 30 30 30
-0.116815 -0.069573 0.372852 30 30 30
-0.113466 -0.069836 0.372920 30 30 30
-0.110986 -0.071871 0.373583 30 30 30
-0.106502 -0.069571 0.372799 30 30 30
-0.095005 -0.071825 0.372157 30 30 30
-0.078107 -0.072264 0.372263 30 30 30
-0.076295 -0.069684 0.372694 30 30 30
-0.069128 -0.071794 0.373355 30 30 30
-0.066435 -0.069650 0.371374 30 30 30
-0.045769 -0.070173 0.371499 30 30 30
-0.023641 -0.071548 0.371895 30 30 30
-0.015148 -0.069916 0.372478 30 30 30
-0.011180 -0.070494 0.372650 30 30 30
0.003509 -0.071624 0.371858 30 30 30
0.007773 -0.070051 0.371330 30 30 30
0.042412 -0.071375 0.371680 30 30 30
0.053465 -0.070433 0.372319 30 30 30
0.059610 -0.071998 0.372805 30 30 30
0.080174 -0.070329 0.371249 30 30 30
0.083260 -0.071535 0.372541 30 30 30
0.086572 -0.071874 0.371742 30 30 30
0.093638 -0.071858 0.371715 30 30 30
0.100976 -0.069656 0.371834 30 30 30
0.117341 -0.069715 0.371775 30 30 30
0.125876 -0.070930 0.372137 30 30 30
0.165127 -0.072431 0.371973 30 30 30
0.179684 -0.072338 0.372007 30 30 30
0.197329 -0.070835 0.371763 30 30 30
0.204376 -0.070439 0.371599 30 30 30
0.230470 -0.071548 0.371840 30 30 30
-0.499041 -0.068478 0.373520 30 30 30
-0.371634 -0.068447 0.373697 30 30 30
-0.344991 -0.068185 0.373482 30 30 30
-0.325465 -0.067352 0.373110 30 30 30
-0.310347 -0.066429 0.372740 30 30 30
-0.306209 -0.068555 0.373423 30 30 30
-0.302104 -0.067421 0.373029 30 30 30
-0.297188 -0.066662 0.372747 30 30 30
-0.290485 -0.068785 0.373423 30 30 30
-0.288367 -0.067337 0.372928 30 30 30
-0.280082 -0.066235 0.372524 30 30 30
-0.272987 -0.066779 0.372670 30 30 30
-0.270980 -0.067573 0.372923 30 30 30
-0.266410 -0.066798 0.372652 30 30 30
-0.263100 -0.067590 0.372897 30 30 30
-0.258924 -0.068062 0.373033 30 30 30
-0.252803 -0.068555 0.373164 30 30 30
-0.239394 -0.066337 0.372370 30 30 30
-0.231075 -0.067155 0.372597 30 30 30
-0.212062 -0.066722 0.372366 30 30 30
-0.205778 -0.068333 0.372868 30 30 30
-0.200895 -0.067378 0.372524 30 30 30
-0.192231 -0.067996 0.372692 30 30 30
-0.188405 -0.066657 0.372226 30 30 30
-0.184608 -0.069074 0.373010 30 30 30
-0.181938 -0.068564 0.372830 30 30 30
-0.174161 -0.067725 0.372510 30 30 30
-0.163473 -0.069109 0.372921 30 30 30
-0.151684 -0.068634 0.372708 30 30 30
-0.146744 -0.067056 0.372164 30 30 30
-0.136776 -0.067852 0.372379 30 30 30
-0.133941 -0.068649 0.372623 30 30 30
-0.129372 -0.069282 0.371402 30 30 30
-0.114308 -0.066921 0.370599 30 30 30
-0.087770 -0.068525 0.371061 30 30 30
-0.082365 -0.067930 0.372140 30 30 30
-0.072501 -0.069002 0.371179 30 30 30
-0.059964 -0.067662 0.371946 30 30 30
-0.053722 -0.067535 0.371874 30 30 30
-0.041522 -0.067951 0.371955 30 30 30
-0.027405 -0.067600 0.371768 30 30 30
-0.004874 -0.068541 0.370865 30 30 30
0.006100 -0.069226 0.372145 30 30 30
0.010298 -0.066867 0.370280 30 30 30
0.017520 -0.068257 0.371072 30 30 30
0.030638 -0.069316 0.372058 30 30 30
0.041177 -0.067681 0.370803 30 30 30
0.047840 -0.067416 0.370372 30 30 30
0.068514 -0.067662 0.370402 30 30 30
0.075951 -0.068330 0.371058 30 30 30
0.103924 -0.066769 0.370868 30 30 30
0.116211 -0.067118 0.370381 30 30 30
0.132170 -0.067690 0.370842 30 30 30
0.169891 -0.068253 0.371042 30 30 30
0.191101 -0.068328 0.370964 30 30 30
0.219052 -0.067942 0.370703 30 30 30
-0.373430 -0.064498 0.372398 30 30 30
-0.355140 -0.064869 0.372432 30 30 30
-0.343248 -0.065539 0.372596 30 30 30
-0.333094 -0.064519 0.372214 30 30 30
-0.315572 -0.065807 0.372556 30 30 30
-0.311693 -0.064015 0.371949 30 30 30
-0.303288 -0.064867 0.372183 30 30 30
-0.286170 -0.064237 0.371900 30 30 30
-0.281693 -0.063293 0.371566 30 30 30
-0.271926 -0.063779 0.371677 30 30 30
-0.260448 -0.063353 0.371481 30 30 30
-0.250787 -0.064071 0.371670 30 30 30
-0.234552 -0.065285 0.371993 30 30 30
-0.230701 -0.064288 0.371652 30 30 30
-0.222291 -0.066093 0.372207 30 30 30
-0.217599 -0.065083 0.371851 30 30 30
-0.214639 -0.065090 0.371833 30 30 30
-0.179967 -0.065235 0.371718 30 30 30
-0.170444 -0.063913 0.371233 30 30 30
-0.164657 -0.064206 0.371303 30 30 30
-0.159510 -0.065760 0.371791 30 30 30
-0.155273 -0.064653 0.371411 30 30 30
-0.143022 -0.064844 0.371413 30 30 30
-0.138775 -0.063615 0.370984 30 30 30
-0.134792 -0.064697 0.371322 30 30 30
-0.120258 -0.065590 0.371552 30 30 30
-0.112449 -0.064378 0.371110 30 30 30
-0.108208 -0.066519 0.370448 30 30 30
-0.100832 -0.063881 0.370893 30 30 30
-0.096937 -0.065904 0.371544 30 30 30
-0.081980 -0.064164 0.370898 30 30 30
-0.076030 -0.066160 0.371529 30 30 30
-0.056811 -0.063929 0.370698 30 30 30
-0.047386 -0.065006 0.371006 30 30 30
-0.032513 -0.066171 0.370157 30 30 30
-0.000082 -0.064914 0.369667 30 30 30
0.017122 -0.065223 0.369725 30 30 30
0.042775 -0.063893 0.370210 30 30 30
0.054068 -0.064058 0.370211 30 30 30
0.063324 -0.065680 0.370078 30 30 30
0.088488 -0.066873 0.370098 30 30 30
0.143984 -0.063908 0.369731 30 30 30
0.197595 -0.066238 0.369938 30 30 30
0.222755 -0.063986 0.369379 30 30 30
0.253816 -0.064443 0.369381 30 30 30
0.271749 -0.064442 0.369295 30 30 30
0.274975 -0.065086 0.369492 30 30 30
-0.365609 -0.061644 0.371416 30 30 30
-0.360316 -0.060824 0.371120 30 30 30
-0.352794 -0.061155 0.371199 30 30 30
-0.346852 -0.062765 0.371701 30 30 30
-0.339980 -0.062802 0.371684 30 30 30
-0.323648 -0.061757 0.371260 30 30 30
-0.315132 -0.060471 0.370790 30 30 30
-0.266437 -0.063095 0.371422 30 30 30
-0.248153 -0.061194 0.370713 30 30 30
-0.236680 -0.062900 0.371215 30 30 30
-0.226153 -0.060917 0.370510 30 30 30
-0.218591 -0.060975 0.370499 30 30 30
-0.212690 -0.061906 0.370772 30 30 30
-0.207036 -0.061743 0.370691 30 30 30
-0.197076 -0.062930 0.371042 30 30 30
-0.175606 -0.062333 0.370742 30 30 30
-0.154293 -0.060664 0.370083 30 30 30
-0.148222 -0.062851 0.370776 30 30 30
-0.141846 -0.062751 0.370713 30 30 30
-0.138331 -0.060688 0.370015 30 30 30
-0.133125 -0.061354 0.370215 30 30 30
-0.123589 -0.063426 0.369477 30 30 30
-0.106026 -0.061754 0.370217 30 30 30
-0.094064 -0.062730 0.370482 30 30 30
-0.089545 -0.061506 0.368768 30 30 30
-0.075074 -0.061097 0.369848 30 30 30
-0.072039 -0.061123 0.368594 30 30 30
-0.055290 -0.061755 0.369970 30 30 30
-0.048365 -0.061408 0.368631 30 30 30
-0.045048 -0.063000 0.370333 30 30 30
-0.039197 -0.061449 0.369792 30 30 30
-0.035075 -0.062932 0.370266 30 30 30
-0.031554 -0.063439 0.370414 30 30 30
-0.026802 -0.062884 0.369635 30 30 30
-0.014397 -0.062061 0.369876 30 30 30
0.005191 -0.062139 0.369810 30 30 30
0.010886 -0.061472 0.369562 30 30 30
0.017955 -0.062488 0.369863 30 30 30
0.025958 -0.062257 0.369751 30 30 30
0.036071 -0.063549 0.370129 30 30 30
0.059240 -0.063676 0.369119 30 30 30
0.065393 -0.061784 0.369406 30 30 30
0.080927 -0.063898 0.369146 30 30 30
0.090658 -0.063436 0.368966 30 30 30
0.101902 -0.061215 0.368211 30 30 30
0.173267 -0.062549 0.368807 30 30 30
0.193859 -0.062409 0.368690 30 30 30
0.226137 -0.062232 0.368649 30 30 30
0.232335 -0.062425 0.368818 30 30 30
-0.498946 -0.058696 0.367855 30 30 30
-0.381508 -0.058831 0.370563 30 30 30
-0.364005 -0.058745 0.370455 30 30 30
-0.345879 -0.058975 0.370448 30 30 30
-0.342457 -0.059565 0.370619 30 30 30
-0.335077 -0.060199 0.370799 30 30 30
-0.329569 -0.059059 0.370390 30 30 30
-0.293177 -0.060222 0.370607 30 30 30
-0.282780 -0.058175 0.369882 30 30 30
-0.272158 -0.060189 0.370493 30 30 30
-0.255440 -0.058169 0.369745 30 30 30
-0.242681 -0.059654 0.370172 30 30 30
-0.237498 -0.058309 0.369709 30 30 30
-0.220889 -0.059316 0.369959 30 30 30
-0.209977 -0.059966 0.370125 30 30 30
-0.203083 -0.059187 0.369828 30 30 30
-0.193274 -0.059997 0.370049 30 30 30
-0.174042 -0.057827 0.369246 30 30 30
-0.168068 -0.059515 0.369775 30 30 30
-0.158843 -0.059928 0.369862 30 30 30
-0.151490 -0.058987 0.369521 30 30 30
-0.129717 -0.058773 0.369341 30 30 30
-0.112039 -0.060450 0.369811 30 30 30
-0.087106 -0.059440 0.369358 30 30 30
-0.083694 -0.060958 0.368568 30 30 30
-0.057576 -0.058876 0.369035 30 30 30
-0.000284 -0.058702 0.367987 30 30 30
0.005261 -0.060234 0.369178 30 30 30
0.023318 -0.058077 0.368383 30 30 30
0.035570 -0.058574 0.368485 30 30 30
0.038091 -0.059161 0.367690 30 30 30
0.047990 -0.059892 0.368861 30 30 30
0.056599 -0.059574 0.367785 30 30 30
0.074602 -0.060416 0.368015 30 30 30
0.085230 -0.060168 0.368777 30 30 30
0.090967 -0.059487 0.368096 30 30 30
0.119635 -0.060324 0.368662 30 30 30
0.123881 -0.058501 0.368041 30 30 30
0.142342 -0.059452 0.368267 30 30 30
0.148469 -0.059942 0.368398 30 30 30
0.184035 -0.058342 0.367700 30 30 30
0.241400 -0.059811 0.367911 30 30 30
0.256911 -0.061143 0.368277 30 30 30
-0.380992 -0.056191 0.369697 30 30 30
-0.362329 -0.056980 0.369860 30 30 30
-0.343017 -0.054927 0.369094 30 30 30
-0.333840 -0.055329 0.369186 30 30 30
-0.326238 -0.056221 0.369437 30 30 30
-0.319515 -0.055691 0.369234 30 30 30
-0.310410 -0.057038 0.369631 30 30 30
-0.304175 -0.055100 0.368965 30 30 30
-0.300774 -0.054720 0.368819 30 30 30
-0.293938 -0.055297 0.368977 30 30 30
-0.283634 -0.055272 0.368927 30 30 30
-0.276143 -0.056004 0.369133 30 30 30
-0.236498 -0.055650 0.368820 30 30 30
-0.201217 -0.056769 0.369025 30 30 30
-0.194638 -0.055783 0.368666 30 30 30
-0.183601 -0.055302 0.368454 30 30 30
-0.176763 -0.056927 0.368961 30 30 30
-0.170826 -0.055035 0.368308 30 30 30
-0.169023 -0.056780 0.368870 30 30 30
-0.164104 -0.055796 0.368522 30 30 30
-0.154105 -0.056780 0.368799 30 30 30
-0.143862 -0.055645 0.368379 30 30 30
-0.132354 -0.057749 0.367635 30 30 30
-0.116333 -0.057592 0.368889 30 30 30
-0.110250 -0.054992 0.368004 30 30 30
-0.087678 -0.056836 0.367226 30 30 30
-0.078002 -0.057741 0.368757 30 30 30
-0.074878 -0.058117 0.367622 30 30 30
-0.070693 -0.057566 0.367425 30 30 30
-0.063117 -0.056129 0.368151 30 30 30
-0.053818 -0.056956 0.368382 30 30 30
-0.050235 -0.056556 0.368229 30 30 30
-0.041980 -0.056202 0.368076 30 30 30
-0.036092 -0.056163 0.368035 30 30 30
-0.023635 -0.056137 0.367967 30 30 30
-0.014818 -0.058087 0.367464 30 30 30
-0.006137 -0.056234 0.366837 30 30 30
0.002465 -0.056649 0.366955 30 30 30
0.008730 -0.056009 0.367075 30 30 30
0.032357 -0.056708 0.366904 30 30 30
0.047505 -0.056843 0.366912 30 30 30
0.052287 -0.056685 0.367785 30 30 30
0.056892 -0.056459 0.366764 30 30 30
0.059293 -0.057418 0.367992 30 30 30
0.078562 -0.056099 0.366594 30 30 30
0.087065 -0.056574 0.366726 30 30 30
0.089504 -0.056506 0.366696 30 30 30
0.098257 -0.055627 0.366389 30 30 30
0.116257 -0.056275 0.367341 30 30 30
0.126391 -0.056948 0.367516 30 30 30
0.163472 -0.057164 0.366958 30 30 30
0.173594 -0.056950 0.367289 30 30 30
0.190124 -0.055755 0.366512 30 30 30
0.487302 -0.057046 0.369468 30 30 30
-0.385819 -0.054084 0.369020 30 30 30
-0.381184 -0.051990 0.368310 30 30 30
-0.371271 -0.052962 0.368584 30 30 30
-0.362906 -0.052794 0.368488 30 30 30
-0.341670 -0.052011 0.368124 30 30 30
-0.324089 -0.052573 0.368229 30 30 30
-0.319668 -0.052784 0.368270 30 30 30
-0.314355 -0.052292 0.368082 30 30 30
-0.307921 -0.053936 0.368602 30 30 30
-0.299529 -0.052565 0.368109 30 30 30
-0.298165 -0.054465 0.368726 30 30 30
-0.289174 -0.053649 0.368410 30 30 30
-0.273183 -0.053729 0.368364 30 30 30
-0.267783 -0.052782 0.368029 30 30 30
-0.259753 -0.054711 0.368627 30 30 30
-0.251176 -0.053396 0.368152 30 30 30
-0.240428 -0.054445 0.368440 30 30 30
-0.221584 -0.053179 0.367938 30 30 30
-0.219163 -0.054216 0.368266 30 30 30
-0.189619 -0.054806 0.368323 30 30 30
-0.167831 -0.053290 0.367718 30 30 30
-0.160493 -0.054717 0.368154 30 30 30
-0.150939 -0.054440 0.368011 30 30 30
-0.147616 -0.052752 0.366036 30 30 30
-0.136813 -0.054062 0.367824 30 30 30
-0.134776 -0.052934 0.366060 30 30 30
-0.126078 -0.053439 0.366886 30 30 30
-0.118056 -0.054247 0.367795 30 30 30
-0.106164 -0.052663 0.367213 30 30 30
-0.101547 -0.055042 0.366675 30 30 30
-0.099398 -0.054005 0.367621 30 30 30
-0.095792 -0.054417 0.366457 30 30 30
-0.092619 -0.054884 0.367883 30 30 30
-0.090233 -0.055129 0.366675 30 30 30
-0.084740 -0.054600 0.367747 30 30 30
-0.072428 -0.052734 0.367077 30 30 30
-0.058692 -0.052599 0.366962 30 30 30
-0.038574 -0.054550 0.366362 30 30 30
-0.027067 -0.053427 0.365969 30 30 30
-0.024013 -0.052853 0.365774 30 30 30
0.000177 -0.054157 0.366145 30 30 30
0.009721 -0.052696 0.365639 30 30 30
0.017535 -0.054706 0.367294 30 30 30
0.022959 -0.053302 0.365804 30 30 30
0.033315 -0.053831 0.366933 30 30 30
0.059398 -0.053355 0.365739 30 30 30
0.069026 -0.053750 0.365840 30 30 30
0.072646 -0.055186 0.366302 30 30 30
0.083121 -0.052722 0.365471 30 30 30
0.090825 -0.053640 0.365756 30 30 30
0.094500 -0.053422 0.366503 30 30 30
0.122221 -0.054116 0.366601 30 30 30
0.131686 -0.053532 0.366360 30 30 30
0.140148 -0.054296 0.366095 30 30 30
0.146641 -0.054162 0.366497 30 30 30
0.159066 -0.054581 0.366578 30 30 30
0.174395 -0.054100 0.366346 30 30 30
0.177355 -0.054133 0.366132 30 30 30
0.265109 -0.054085 0.365906 30 30 30
-0.375371 -0.049142 0.367333 30 30 30
-0.348059 -0.049287 0.367259 30 30 30
-0.339015 -0.050257 0.367536 30 30 30
-0.330540 -0.051630 0.367941 30 30 30
-0.325791 -0.049066 0.367079 30 30 30
-0.295439 -0.051348 0.367687 30 30 30
-0.289389 -0.050282 0.367306 30 30 30
-0.280353 -0.051243 0.367573 30 30 30
-0.274852 -0.051258 0.367559 30 30 30
-0.262363 -0.050851 0.367358 30 30 30
-0.257996 -0.049669 0.366950 30 30 30
-0.247372 -0.049131 0.366725 30 30 30
-0.242929 -0.051153 0.367371 30 30 30
-0.238983 -0.051589 0.367497 30 30 30
-0.228009 -0.051514 0.367416 30 30 30
-0.204489 -0.049237 0.366548 30 30 30
-0.200780 -0.050463 0.366935 30 30 30
-0.191507 -0.050770 0.366992 30 30 30
-0.183739 -0.051014 0.367042 30 30 30
-0.178399 -0.049207 0.366418 30 30 30
-0.174274 -0.051783 0.367251 30 30 30
-0.160651 -0.051721 0.367159 30 30 30
-0.151309 -0.049380 0.366341 30 30 30
-0.144558 -0.051872 0.365739 30 30 30
-0.137996 -0.050232 0.365183 30 30 30
-0.108446 -0.049975 0.366336 30 30 30
-0.090819 -0.050532 0.366433 30 30 30
-0.084701 -0.051144 0.366611 30 30 30
-0.077189 -0.052258 0.365706 30 30 30
-0.074677 -0.051276 0.366606 30 30 30
-0.055956 -0.050080 0.366119 30 30 30
-0.044589 -0.052356 0.365659 30 30 30
-0.042213 -0.051580 0.366549 30 30 30
-0.023525 -0.050530 0.366113 30 30 30
-0.020802 -0.050153 0.364884 30 30 30
-0.018828 -0.051422 0.366383 30 30 30
-0.005897 -0.051071 0.365148 30 30 30
-0.002728 -0.051761 0.365364 30 30 30
0.027509 -0.052465 0.365521 30 30 30
0.051856 -0.051522 0.365153 30 30 30
0.062081 -0.050293 0.365626 30 30 30
0.076901 -0.050001 0.365456 30 30 30
0.099106 -0.050534 0.365120 30 30 30
0.103755 -0.050767 0.365583 30 30 30
0.112923 -0.051795 0.365876 30 30 30
0.134176 -0.051091 0.365059 30 30 30
0.199575 -0.050109 0.364622 30 30 30
0.228591 -0.049993 0.364729 30 30 30
0.245067 -0.052584 0.365505 30 30 30
-0.394624 -0.046825 0.366660 30 30 30
-0.385439 -0.047691 0.366911 30 30 30
-0.380614 -0.048747 0.367236 30 30 30
-0.378044 -0.046363 0.366428 30 30 30
-0.370671 -0.048006 0.366936 30 30 30
-0.367686 -0.047662 0.366816 30 30 30
-0.361124 -0.047302 0.366661 30 30 30
-0.356720 -0.047903 0.366843 30 30 30
-0.334233 -0.046333 0.366209 30 30 30
-0.317724 -0.048494 0.366850 30 30 30
-0.306337 -0.048251 0.366717 30 30 30
-0.303486 -0.047547 0.366470 30 30 30
-0.283626 -0.048597 0.366715 30 30 30
-0.280587 -0.046700 0.366074 30 30 30
-0.225256 -0.048207 0.366311 30 30 30
-0.216178 -0.048863 0.366487 30 30 30
-0.209969 -0.048761 0.366423 30 30 30
-0.207490 -0.046915 0.365795 30 30 30
-0.197328 -0.048282 0.366202 30 30 30
-0.166469 -0.049134 0.366338 30 30 30
-0.156822 -0.047025 0.365592 30 30 30
-0.140917 -0.048762 0.366090 30 30 30
-0.136229 -0.047295 0.365580 30 30 30
-0.131907 -0.047600 0.364308 30 30 30
-0.126952 -0.046589 0.365303 30 30 30
-0.122609 -0.049089 0.364778 30 30 30
-0.120513 -0.047926 0.365719 30 30 30
-0.102812 -0.047362 0.365448 30 30 30
-0.100005 -0.049369 0.365240 30 30 30
-0.079116 -0.047283 0.365304 30 30 30
-0.069867 -0.049231 0.365903 30 30 30
-0.066319 -0.048739 0.365724 30 30 30
-0.060386 -0.047004 0.363943 30 30 30
-0.053892 -0.049463 0.364732 30 30 30
-0.050664 -0.048703 0.365637 30 30 30
-0.037782 -0.048511 0.365516 30 30 30
-0.033946 -0.047615 0.365198 30 30 30
-0.008995 -0.048183 0.365270 30 30 30
-0.000451 -0.048494 0.365331 30 30 30
0.010592 -0.048976 0.364419 30 30 30
0.015357 -0.046939 0.364742 30 30 30
0.022999 -0.049125 0.365427 30 30 30
0.028123 -0.048996 0.364382 30 30 30
0.041981 -0.048454 0.364172 30 30 30
0.056513 -0.047344 0.364678 30 30 30
0.069152 -0.047376 0.364045 30 30 30
0.076361 -0.047238 0.363692 30 30 30
0.085683 -0.048673 0.364140 30 30 30
0.108136 -0.047233 0.364003 30 30 30
0.147530 -0.049585 0.364983 30 30 30
0.170203 -0.047213 0.363776 30 30 30
0.182058 -0.049073 0.364648 30 30 30
-0.384359 -0.044902 0.365976 30 30 30
-0.372874 -0.045118 0.366000 30 30 30
-0.361799 -0.043233 0.365317 30 30 30
-0.350960 -0.044622 0.365723 30 30 30
-0.327868 -0.044333 0.365526 30 30 30
-0.321770 -0.045957 0.366029 30 30 30
-0.306625 -0.043933 0.365284 30 30 30
-0.300499 -0.045944 0.365923 30 30 30
-0.294197 -0.044010 0.365254 30 30 30
-0.286253 -0.044367 0.365337 30 30 30
-0.281515 -0.043854 0.365145 30 30 30
-0.278265 -0.044969 0.365498 30 30 30
-0.269130 -0.045718 0.365697 30 30 30
-0.251016 -0.046011 0.365709 30 30 30
-0.240154 -0.045381 0.365448 30 30 30
-0.237400 -0.043406 0.364779 30 30 30
-0.229908 -0.045366 0.365394 30 30 30
-0.215299 -0.044907 0.365170 30 30 30
-0.212067 -0.044268 0.364946 30 30 30
-0.201677 -0.045415 0.365272 30 30 30
-0.191629 -0.046124 0.365465 30 30 30
-0.165091 -0.044974 0.364955 30 30 30
-0.152347 -0.044747 0.363420 30 30 30
-0.119598 -0.044686 0.364639 30 30 30
-0.099241 -0.044461 0.364473 30 30 30
-0.091249 -0.045836 0.364886 30 30 30
-0.075527 -0.045473 0.363481 30 30 30
-0.060695 -0.044826 0.364409 30 30 30
-0.048520 -0.045359 0.364522 30 30 30
-0.034556 -0.044650 0.364225 30 30 30
-0.023530 -0.044286 0.364048 30 30 30
-0.006728 -0.045986 0.363480 30 30 30
0.000637 -0.046033 0.363478 30 30 30
0.005412 -0.043991 0.363306 30 30 30
0.018248 -0.045609 0.363297 30 30 30
0.029233 -0.044156 0.362799 30 30 30
0.032778 -0.045011 0.364020 30 30 30
0.039095 -0.044674 0.363880 30 30 30
0.072003 -0.045261 0.363913 30 30 30
0.104791 -0.044666 0.363563 30 30 30
0.113886 -0.046142 0.364006 30 30 30
0.120623 -0.044437 0.363410 30 30 30
0.195104 -0.046313 0.363673 30 30 30
0.209872 -0.045933 0.363478 30 30 30
-0.390592 -0.042107 0.365091 30 30 30
-0.379923 -0.042097 0.365036 30 30 30
-0.376650 -0.040447 0.364476 30 30 30
-0.357485 -0.041286 0.364653 30 30 30
-0.345005 -0.042639 0.365040 30 30 30
-0.341999 -0.041475 0.364645 30 30 30
-0.330863 -0.042865 0.365047 30 30 30
-0.323736 -0.040447 0.364214 30 30 30
-0.311789 -0.041838 0.364621 30 30 30
-0.289947 -0.041212 0.364306 30 30 30
-0.267405 -0.041150 0.364185 30 30 30
-0.264622 -0.042810 0.364720 30 30 30
-0.240849 -0.041290 0.364104 30 30 30
-0.225975 -0.040909 0.363900 30 30 30
-0.215308 -0.041519 0.364050 30 30 30
-0.204329 -0.041768 0.364086 30 30 30
-0.198381 -0.043433 0.364605 30 30 30
-0.194223 -0.041914 0.364086 30 30 30
-0.182026 -0.043374 0.364505 30 30 30
-0.175281 -0.040656 0.363580 30 30 30
-0.171379 -0.041711 0.363910 30 30 30
-0.149765 -0.040712 0.363476 30 30 30
-0.143914 -0.040867 0.363497 30 30 30
-0.132040 -0.041320 0.362255 30 30 30
-0.125316 -0.041226 0.361763 30 30 30
-0.115509 -0.042347 0.363847 30 30 30
-0.091791 -0.041218 0.362122 30 30 30
-0.077544 -0.041828 0.363494 30 30 30
-0.071062 -0.041261 0.362089 30 30 30
-0.065792 -0.042946 0.362626 30 30 30
-0.059213 -0.040969 0.363123 30 30 30
-0.053859 -0.042479 0.363025 30 30 30
-0.037085 -0.041533 0.362094 30 30 30
-0.020456 -0.043768 0.362792 30 30 30
-0.016343 -0.043105 0.362562 30 30 30
0.016627 -0.041494 0.361953 30 30 30
0.020182 -0.043012 0.362445 30 30 30
0.034857 -0.043108 0.362440 30 30 30
0.086288 -0.042405 0.362495 30 30 30
0.089273 -0.042879 0.363047 30 30 30
0.123807 -0.043662 0.362530 30 30 30
0.139174 -0.043186 0.362909 30 30 30
0.167759 -0.043533 0.362887 30 30 30
-0.407791 -0.037906 0.363777 30 30 30
-0.400732 -0.037648 0.363658 30 30 30
-0.397705 -0.037902 0.363736 30 30 30
-0.393370 -0.039514 0.364239 30 30 30
-0.389030 -0.039304 0.364157 30 30 30
-0.372930 -0.037550 0.363492 30 30 30
-0.353688 -0.039714 0.364124 30 30 30
-0.335685 -0.040130 0.364173 30 30 30
-0.329304 -0.038944 0.363753 30 30 30
-0.320686 -0.040278 0.364152 30 30 30
-0.305390 -0.037622 0.363197 30 30 30
-0.297469 -0.038184 0.363345 30 30 30
-0.285987 -0.039830 0.363830 30 30 30
-0.281238 -0.038247 0.363285 30 30 30
-0.276424 -0.037902 0.363148 30 30 30
-0.273195 -0.040394 0.363961 30 30 30
-0.260674 -0.037791 0.363036 30 30 30
-0.254808 -0.039496 0.363576 30 30 30
-0.230633 -0.040471 0.363784 30 30 30
-0.191956 -0.039730 0.363354 30 30 30
-0.188209 -0.038608 0.362959 30 30 30
-0.166611 -0.039392 0.363115 30 30 30
-0.163960 -0.039940 0.361873 30 30 30
-0.156079 -0.040777 0.362134 30 30 30
-0.136912 -0.037835 0.362465 30 30 30
-0.122599 -0.037905 0.362419 30 30 30
-0.119346 -0.040895 0.362081 30 30 30
-0.107428 -0.039727 0.362948 30 30 30
-0.104612 -0.040165 0.361804 30 30 30
-0.098851 -0.038692 0.361315 30 30 30
-0.086087 -0.040261 0.361798 30 30 30
-0.076760 -0.038325 0.362338 30 30 30
-0.061390 -0.038882 0.362448 30 30 30
-0.051528 -0.039442 0.362586 30 30 30
-0.045632 -0.039553 0.361464 30 30 30
-0.033084 -0.038564 0.361112 30 30 30
-0.030740 -0.038793 0.362268 30 30 30
-0.024380 -0.039618 0.361436 30 30 30
-0.006121 -0.039882 0.361479 30 30 30
-0.002084 -0.039728 0.362444 30 30 30
0.002526 -0.039668 0.361388 30 30 30
0.005385 -0.038609 0.362035 30 30 30
0.038294 -0.038800 0.361017 30 30 30
0.050921 -0.040411 0.362416 30 30 30
0.053945 -0.039851 0.361327 30 30 30
0.057353 -0.039041 0.361050 30 30 30
0.107960 -0.040856 0.362289 30 30 30
0.185767 -0.040860 0.361628 30 30 30
0.192949 -0.038716 0.360898 30 30 30
0.204067 -0.039729 0.361455 30 30 30
-0.403854 -0.035786 0.363067 30 30 30
-0.389505 -0.035989 0.363056 30 30 30
-0.388137 -0.034881 0.362684 30 30 30
-0.384545 -0.035875 0.362995 30 30 30
-0.380288 -0.036781 0.363274 30 30 30
-0.369363 -0.034715 0.362543 30 30 30
-0.365858 -0.036699 0.363177 30 30 30
-0.339369 -0.036187 0.362886 30 30 30
-0.330900 -0.035367 0.362579 30 30 30
-0.327094 -0.035468 0.362586 30 30 30
-0.313309 -0.037406 0.363160 30 30 30
-0.308857 -0.037396 0.363143 30 30 30
-0.298941 -0.035897 0.362595 30 30 30
-0.292560 -0.035763 0.362526 30 30 30
-0.272624 -0.034811 0.362108 30 30 30
-0.263190 -0.034826 0.362072 30 30 30
-0.254723 -0.036200 0.362485 30 30 30
-0.243120 -0.036772 0.362615 30 30 30
-0.228912 -0.037611 0.362831 30 30 30
-0.224552 -0.036317 0.362379 30 30 30
-0.213594 -0.036362 0.362345 30 30 30
-0.208209 -0.035019 0.361876 30 30 30
-0.205182 -0.035826 0.362122 30 30 30
-0.200512 -0.036228 0.362235 30 30 30
-0.183635 -0.035773 0.362007 30 30 30
-0.176331 -0.036752 0.362290 30 30 30
-0.153296 -0.037544 0.361064 30 30 30
-0.149501 -0.036978 0.362236 30 30 30
-0.141466 -0.035416 0.360339 30 30 30
-0.111887 -0.037530 0.362244 30 30 30
-0.103300 -0.036031 0.361702 30 30 30
-0.093577 -0.035497 0.361479 30 30 30
-0.069065 -0.038104 0.361054 30 30 30
-0.065843 -0.036288 0.361608 30 30 30
-0.054611 -0.035889 0.360291 30 30 30
-0.040521 -0.037595 0.361923 30 30 30
-0.036254 -0.036949 0.360589 30 30 30
-0.021323 -0.037611 0.361835 30 30 30
-0.001326 -0.036190 0.360256 30 30 30
0.022888 -0.035819 0.361031 30 30 30
0.026897 -0.038111 0.360822 30 30 30
0.041803 -0.035656 0.359977 30 30 30
0.049726 -0.037298 0.361393 30 30 30
0.059204 -0.036156 0.360103 30 30 30
0.063318 -0.037414 0.360507 30 30 30
0.066866 -0.037804 0.360624 30 30 30
0.077229 -0.035977 0.360822 30 30 30
0.113845 -0.037028 0.360994 30 30 30
0.122047 -0.037088 0.360496 30 30 30
0.145507 -0.037681 0.361059 30 30 30
0.153525 -0.038296 0.360900 30 30 30
0.212051 -0.038288 0.360942 30 30 30
0.229172 -0.037048 0.360451 30 30 30
-0.407682 -0.034242 0.362575 30 30 30
-0.401001 -0.034046 0.362472 30 30 30
-0.395307 -0.033374 0.362220 30 30 30
-0.362353 -0.033574 0.362131 30 30 30
-0.357476 -0.032875 0.361879 30 30 30
-0.354870 -0.033289 0.361999 30 30 30
-0.351502 -0.033628 0.362095 30 30 30
-0.339328 -0.032473 0.361655 30 30 30
-0.336052 -0.032336 0.361594 30 30 30
-0.333158 -0.032545 0.361653 30 30 30
-0.328297 -0.032965 0.361773 30 30 30
-0.324125 -0.033050 0.361773 30 30 30
-0.317795 -0.034676 0.362288 30 30 30
-0.312355 -0.031910 0.361340 30 30 30
-0.304878 -0.034061 0.362023 30 30 30
-0.279059 -0.032882 0.361509 30 30 30
-0.275699 -0.034373 0.361986 30 30 30
-0.267606 -0.033059 0.361509 30 30 30
-0.258178 -0.033408 0.361576 30 30 30
-0.250609 -0.033150 0.361462 30 30 30
-0.249327 -0.034711 0.361971 30 30 30
-0.245966 -0.032672 0.361274 30 30 30
-0.240386 -0.032460 0.361181 30 30 30
-0.216683 -0.033897 0.361546 30 30 30
-0.211809 -0.033588 0.361414 30 30 30
-0.205382 -0.032381 0.360984 30 30 30
-0.198085 -0.033765 0.361413 30 30 30
-0.185843 -0.033032 0.361112 30 30 30
-0.179072 -0.032789 0.360994 30 30 30
-0.157977 -0.035245 0.360325 30 30 30
-0.154674 -0.033596 0.361145 30 30 30
-0.143627 -0.032545 0.360749 30 30 30
-0.137695 -0.032644 0.360754 30 30 30
-0.128854 -0.033129 0.359557 30 30 30
-0.120161 -0.033431 0.360928 30 30 30
-0.114436 -0.033551 0.360936 30 30 30
-0.111489 -0.035043 0.360144 30 30 30
-0.097007 -0.032730 0.359356 30 30 30
-0.092606 -0.032953 0.359823 30 30 30
-0.090371 -0.034859 0.361259 30 30 30
-0.087432 -0.033115 0.360668 30 30 30
-0.083740 -0.033731 0.360854 30 30 30
-0.077575 -0.034574 0.359911 30 30 30
-0.073571 -0.033248 0.360641 30 30 30
-0.068755 -0.033388 0.359507 30 30 30
-0.060802 -0.033690 0.360728 30 30 30
-0.048795 -0.034306 0.359753 30 30 30
-0.025367 -0.033191 0.360394 30 30 30
-0.018115 -0.035090 0.360989 30 30 30
-0.015832 -0.032983 0.359243 30 30 30
0.009001 -0.033999 0.360498 30 30 30
0.029128 -0.034909 0.360235 30 30 30
0.032228 -0.034254 0.360471 30 30 30
0.047140 -0.034200 0.359494 30 30 30
0.065769 -0.032936 0.359872 30 30 30
0.068951 -0.033866 0.360166 30 30 30
0.071625 -0.032925 0.359017 30 30 30
0.074819 -0.034531 0.359535 30 30 30
0.077697 -0.033009 0.359841 30 30 30
0.091792 -0.033985 0.360094 30 30 30
0.138373 -0.035035 0.359883 30 30 30
0.150729 -0.034692 0.360047 30 30 30
0.183686 -0.033334 0.359442 30 30 30
0.211755 -0.033844 0.359476 30 30 30
-0.501739 -0.031340 0.359536 30 30 30
-0.408671 -0.030953 0.361484 30 30 30
-0.400082 -0.031095 0.361499 30 30 30
-0.390647 -0.031148 0.361462 30 30 30
-0.388127 -0.029571 0.360929 30 30 30
-0.376318 -0.029684 0.360915 30 30 30
-0.364955 -0.029988 0.360965 30 30 30
-0.360166 -0.030865 0.361223 30 30 30
-0.343356 -0.029245 0.360616 30 30 30
-0.308170 -0.031052 0.361037 30 30 30
-0.293141 -0.029987 0.360613 30 30 30
-0.288980 -0.031296 0.361033 30 30 30
-0.285199 -0.030492 0.360742 30 30 30
-0.271697 -0.031298 0.360943 30 30 30
-0.264744 -0.029235 0.360236 30 30 30
-0.254411 -0.030031 0.360446 30 30 30
-0.245421 -0.029309 0.360161 30 30 30
-0.239109 -0.029262 0.360121 30 30 30
-0.235744 -0.029434 0.360159 30 30 30
-0.231946 -0.031452 0.360812 30 30 30
-0.223681 -0.031475 0.360776 30 30 30
-0.218894 -0.029864 0.360221 30 30 30
-0.215550 -0.031360 0.360696 30 30 30
-0.212441 -0.029814 0.360170 30 30 30
-0.206140 -0.029250 0.359957 30 30 30
-0.200711 -0.031043 0.360527 30 30 30
-0.196194 -0.029661 0.360042 30 30 30
-0.190942 -0.031484 0.360619 30 30 30
-0.182572 -0.029858 0.360048 30 30 30
-0.170621 -0.032160 0.359344 30 30 30
-0.163302 -0.029405 0.359800 30 30 30
-0.156673 -0.029695 0.359867 30 30 30
-0.134569 -0.032192 0.359269 30 30 30
-0.131369 -0.031547 0.359049 30 30 30
-0.116153 -0.030852 0.360056 30 30 30
-0.113005 -0.029719 0.358404 30 30 30
-0.100843 -0.032392 0.359246 30 30 30
-0.097833 -0.029571 0.359548 30 30 30
-0.084047 -0.029662 0.359506 30 30 30
-0.079591 -0.031692 0.360156 30 30 30
-0.063384 -0.030492 0.358541 30 30 30
-0.058041 -0.031855 0.360111 30 30 30
-0.044438 -0.032053 0.360111 30 30 30
-0.039762 -0.032421 0.359117 30 30 30
-0.031911 -0.032025 0.360042 30 30 30
-0.007633 -0.029797 0.358178 30 30 30
-0.000605 -0.030278 0.358322 30 30 30
0.002752 -0.031250 0.358629 30 30 30
0.011777 -0.030284 0.358294 30 30 30
0.035757 -0.031567 0.358655 30 30 30
0.045019 -0.032137 0.358818 30 30 30
0.048616 -0.031666 0.359535 30 30 30
0.053571 -0.031395 0.358559 30 30 30
0.083115 -0.031039 0.358635 30 30 30
0.126196 -0.031189 0.358662 30 30 30
0.155424 -0.032196 0.358889 30 30 30
0.158770 -0.030813 0.358729 30 30 30
0.177814 -0.032089 0.358914 30 30 30
0.197288 -0.031327 0.358713 30 30 30
0.210047 -0.031508 0.358711 30 30 30
-0.416027 -0.027126 0.360255 30 30 30
-0.406107 -0.026994 0.360169 30 30 30
-0.385030 -0.028449 0.360544 30 30 30
-0.371839 -0.028874 0.360621 30 30 30
-0.370228 -0.026443 0.359811 30 30 30
-0.351260 -0.027767 0.360166 30 30 30
-0.328831 -0.027059 0.359824 30 30 30
-0.323195 -0.027165 0.359828 30 30 30
-0.309915 -0.027881 0.360001 30 30 30
-0.302570 -0.027362 0.359797 30 30 30
-0.298550 -0.028359 0.360101 30 30 30
-0.288969 -0.028104 0.359975 30 30 30
-0.277830 -0.027924 0.359858 30 30 30
-0.263238 -0.026655 0.359373 30 30 30
-0.258692 -0.028675 0.360022 30 30 30
-0.230000 -0.028409 0.359793 30 30 30
-0.222311 -0.027004 0.359289 30 30 30
-0.215235 -0.026912 0.359232 30 30 30
-0.209747 -0.026363 0.359017 30 30 30
-0.192709 -0.026838 0.359099 30 30 30
-0.190158 -0.027847 0.359420 30 30 30
-0.186977 -0.027377 0.359244 30 30 30
-0.166804 -0.028835 0.359633 30 30 30
-0.150431 -0.028065 0.358626 30 30 30
-0.141163 -0.027179 0.357205 30 30 30
-0.138443 -0.029249 0.358315 30 30 30
-0.134804 -0.027223 0.358945 30 30 30
-0.128867 -0.027128 0.357594 30 30 30
-0.124169 -0.028592 0.358065 30 30 30
-0.120961 -0.028609 0.358062 30 30 30
-0.105422 -0.028948 0.359375 30 30 30
-0.095250 -0.026658 0.358570 30 30 30
-0.091392 -0.028921 0.359297 30 30 30
-0.061323 -0.026808 0.358460 30 30 30
-0.048036 -0.029139 0.359165 30 30 30
-0.042094 -0.028127 0.357711 30 30 30
-0.037076 -0.027714 0.358638 30 30 30
-0.033003 -0.028335 0.357758 30 30 30
-0.018463 -0.029653 0.358156 30 30 30
-0.003927 -0.027873 0.357537 30 30 30
0.006338 -0.029420 0.358510 30 30 30
0.020830 -0.027474 0.358285 30 30 30
0.023758 -0.029298 0.357944 30 30 30
0.033042 -0.026749 0.357988 30 30 30
0.046918 -0.028838 0.357735 30 30 30
0.051517 -0.026907 0.357952 30 30 30
0.095691 -0.027671 0.357993 30 30 30
0.101959 -0.029568 0.358218 30 30 30
0.109161 -0.029221 0.358196 30 30 30
0.135501 -0.027166 0.357635 30 30 30
0.183914 -0.029358 0.358126 30 30 30
0.213970 -0.027093 0.357235 30 30 30
-0.418710 -0.025258 0.359660 30 30 30
-0.413755 -0.024915 0.359514 30 30 30
-0.409133 -0.024177 0.359257 30 30 30
-0.393766 -0.024407 0.359254 30 30 30
-0.379565 -0.024304 0.359148 30 30 30
-0.374586 -0.025516 0.359534 30 30 30
-0.362612 -0.025747 0.359544 30 30 30
-0.343179 -0.024276 0.358965 30 30 30
-0.340154 -0.024231 0.358945 30 30 30
-0.317198 -0.024840 0.359036 30 30 30
-0.305367 -0.024706 0.358935 30 30 30
-0.281617 -0.025364 0.359038 30 30 30
-0.279476 -0.026110 0.359275 30 30 30
-0.276073 -0.024419 0.358692 30 30 30
-0.267674 -0.026189 0.359244 30 30 30
-0.252892 -0.024670 0.358664 30 30 30
-0.239958 -0.024383 0.358515 30 30 30
-0.221507 -0.024207 0.358361 30 30 30
-0.213153 -0.023862 0.358214 30 30 30
-0.179502 -0.024467 0.358249 30 30 30
-0.161538 -0.024397 0.356774 30 30 30
-0.159778 -0.026152 0.358715 30 30 30
-0.120518 -0.025469 0.357029 30 30 30
-0.117315 -0.025789 0.357130 30 30 30
-0.091764 -0.024804 0.357942 30 30 30
-0.077192 -0.026285 0.357195 30 30 30
-0.071410 -0.026032 0.358248 30 30 30
-0.054188 -0.025683 0.358049 30 30 30
-0.051985 -0.025606 0.356915 30 30 30
-0.048018 -0.025982 0.357024 30 30 30
-0.027713 -0.026291 0.358126 30 30 30
-0.020820 -0.024327 0.356418 30 30 30
-0.015682 -0.026255 0.357042 30 30 30
-0.005630 -0.025154 0.357647 30 30 30
0.001519 -0.026628 0.357121 30 30 30
0.008521 -0.025517 0.356737 30 30 30
0.029133 -0.025458 0.357577 30 30 30
0.033458 -0.023877 0.357034 30 30 30
0.044944 -0.024870 0.357309 30 30 30
0.083777 -0.025551 0.357348 30 30 30
0.087068 -0.026694 0.357712 30 30 30
0.123938 -0.026606 0.357504 30 30 30
0.127247 -0.025438 0.357102 30 30 30
0.142374 -0.024500 0.356722 30 30 30
0.177601 -0.025597 0.356913 30 30 30
-0.425159 -0.021494 0.358438 30 30 30
-0.417499 -0.020849 0.358193 30 30 30
-0.403228 -0.021586 0.358364 30 30 30
-0.388377 -0.023062 0.358790 30 30 30
-0.369250 -0.022996 0.358667 30 30 30
-0.363776 -0.022074 0.358345 30 30 30
-0.360024 -0.023243 0.358709 30 30 30
-0.351159 -0.022154 0.358303 30 30 30
-0.346272 -0.023245 0.358640 30 30 30
-0.336554 -0.022023 0.358194 30 30 30
-0.326769 -0.020885 0.357767 30 30 30
-0.322493 -0.022588 0.358317 30 30 30
-0.316808 -0.022405 0.358229 30 30 30
-0.309435 -0.022632 0.358261 30 30 30
-0.294061 -0.020915 0.357626 30 30 30
-0.281756 -0.022071 0.357948 30 30 30
-0.280067 -0.021045 0.357597 30 30 30
-0.260011 -0.021630 0.357694 30 30 30
-0.245816 -0.022994 0.358084 30 30 30
-0.235923 -0.022035 0.357714 30 30 30
-0.222969 -0.021320 0.357418 30 30 30
-0.218501 -0.023446 0.358103 30 30 30
-0.215776 -0.021525 0.357455 30 30 30
-0.207610 -0.020968 0.357232 30 30 30
-0.205286 -0.023280 0.357978 30 30 30
-0.200290 -0.022478 0.357689 30 30 30
-0.195440 -0.021604 0.357384 30 30 30
-0.188746 -0.022489 0.357637 30 30 30
-0.171618 -0.022894 0.356310 30 30 30
-0.167711 -0.022953 0.357690 30 30 30
-0.165894 -0.021147 0.355726 30 30 30
-0.162493 -0.020801 0.356960 30 30 30
-0.151002 -0.020895 0.356937 30 30 30
-0.135498 -0.023637 0.356464 30 30 30
-0.129750 -0.021867 0.357153 30 30 30
-0.123297 -0.021148 0.355621 30 30 30
-0.094841 -0.023134 0.357402 30 30 30
-0.089860 -0.020837 0.356622 30 30 30
-0.083534 -0.023453 0.356283 30 30 30
-0.045864 -0.021553 0.355567 30 30 30
-0.035472 -0.022652 0.356609 30 30 30
-0.018105 -0.022060 0.355669 30 30 30
-0.009722 -0.020937 0.356271 30 30 30
-0.006501 -0.022841 0.355897 30 30 30
-0.001522 -0.021784 0.356510 30 30 30
0.006897 -0.023328 0.356025 30 30 30
0.011197 -0.021762 0.355506 30 30 30
0.025517 -0.021920 0.355518 30 30 30
0.037745 -0.021204 0.356134 30 30 30
0.054456 -0.021189 0.356049 30 30 30
0.057052 -0.022582 0.356076 30 30 30
0.072376 -0.022717 0.356468 30 30 30
0.079444 -0.022533 0.356374 30 30 30
0.095595 -0.022342 0.356233 30 30 30
0.117918 -0.023723 0.356235 30 30 30
0.147997 -0.023258 0.356284 30 30 30
0.152121 -0.023794 0.356134 30 30 30
0.205902 -0.022359 0.355709 30 30 30
0.218859 -0.022647 0.355742 30 30 30
-0.408811 -0.019451 0.357694 30 30 30
-0.395726 -0.017623 0.357028 30 30 30
-0.387018 -0.017616 0.356982 30 30 30
-0.382882 -0.020275 0.357833 30 30 30
-0.379995 -0.018438 0.357222 30 30 30
-0.373972 -0.020367 0.357822 30 30 30
-0.368575 -0.018746 0.357264 30 30 30
-0.360750 -0.017751 0.356898 30 30 30
-0.353398 -0.017700 0.356846 30 30 30
-0.348315 -0.018328 0.357034 30 30 30
-0.345542 -0.019215 0.357314 30 30 30
-0.342270 -0.019814 0.357487 30 30 30
-0.334148 -0.018677 0.357073 30 30 30
-0.330224 -0.018597 0.357036 30 30 30
-0.322394 -0.018074 0.356826 30 30 30
-0.308876 -0.018926 0.357042 30 30 30
-0.306496 -0.019297 0.357145 30 30 30
-0.303095 -0.019811 0.357307 30 30 30
-0.292314 -0.017981 0.356647 30 30 30
-0.289095 -0.018088 0.356671 30 30 30
-0.275795 -0.019236 0.356984 30 30 30
-0.259383 -0.018645 0.356713 30 30 30
-0.250243 -0.019125 0.356823 30 30 30
-0.244172 -0.019236 0.356835 30 30 30
-0.235735 -0.019278 0.356801 30 30 30
-0.211506 -0.020114 0.356968 30 30 30
-0.201922 -0.018540 0.356399 30 30 30
-0.197930 -0.019522 0.356701 30 30 30
-0.191197 -0.019345 0.356611 30 30 30
-0.182922 -0.019214 0.355834 30 30 30
-0.172475 -0.018066 0.356102 30 30 30
-0.155861 -0.020309 0.355424 30 30 30
-0.151405 -0.018409 0.356111 30 30 30
-0.141581 -0.018636 0.356142 30 30 30
-0.134790 -0.020414 0.355409 30 30 30
-0.129870 -0.018392 0.356003 30 30 30
-0.117168 -0.020571 0.355420 30 30 30
-0.095428 -0.019622 0.356244 30 30 30
-0.077314 -0.019377 0.355504 30 30 30
-0.066885 -0.019789 0.355039 30 30 30
-0.062472 -0.019326 0.355437 30 30 30
-0.048664 -0.020178 0.356205 30 30 30
-0.027856 -0.019376 0.354816 30 30 30
-0.015454 -0.019888 0.354953 30 30 30
0.015291 -0.018616 0.355387 30 30 30
0.020058 -0.019292 0.354672 30 30 30
0.023822 -0.018479 0.355301 30 30 30
0.042666 -0.020129 0.354894 30 30 30
0.048624 -0.020285 0.354929 30 30 30
0.056894 -0.018785 0.355240 30 30 30
0.082721 -0.018986 0.355186 30 30 30
0.088717 -0.019666 0.355382 30 30 30
0.092696 -0.018297 0.354908 30 30 30
0.110279 -0.019098 0.354740 30 30 30
0.116126 -0.018420 0.354836 30 30 30
0.128764 -0.019770 0.355004 30 30 30
0.190062 -0.018367 0.354466 30 30 30
0.198698 -0.019572 0.354824 30 30 30
0.210358 -0.021199 0.355304 30 30 30
0.230535 -0.020133 0.354857 30 30 30
-0.432259 -0.016111 0.356694 30 30 30
-0.423111 -0.014855 0.356245 30 30 30
-0.418857 -0.016571 0.356791 30 30 30
-0.404047 -0.015784 0.356456 30 30 30
-0.375373 -0.016299 0.356493 30 30 30
-0.372118 -0.015630 0.356248 30 30 30
-0.355884 -0.016940 0.356603 30 30 30
-0.330269 -0.015111 0.355885 30 30 30
-0.327232 -0.016834 0.356431 30 30 30
-0.316107 -0.017123 0.356473 30 30 30
-0.312993 -0.017479 0.356584 30 30 30
-0.309268 -0.016468 0.356232 30 30 30
-0.298297 -0.016631 0.356228 30 30 30
-0.284812 -0.016389 0.356085 30 30 30
-0.272608 -0.014991 0.355569 30 30 30
-0.266696 -0.017055 0.356218 30 30 30
-0.253607 -0.016574 0.356001 30 30 30
-0.249525 -0.015223 0.355535 30 30 30
-0.227965 -0.017618 0.356223 30 30 30
-0.224459 -0.015496 0.355498 30 30 30
-0.219700 -0.016746 0.355892 30 30 30
-0.141498 -0.015657 0.353863 30 30 30
-0.117199 -0.015161 0.354875 30 30 30
-0.110317 -0.016959 0.354216 30 30 30
-0.105351 -0.017352 0.354337 30 30 30
-0.101057 -0.018069 0.354560 30 30 30
-0.087072 -0.016800 0.355278 30 30 30
-0.058842 -0.016288 0.353879 30 30 30
-0.042162 -0.018156 0.354446 30 30 30
-0.036405 -0.017006 0.354062 30 30 30
-0.020881 -0.018260 0.354433 30 30 30
-0.003993 -0.016831 0.353921 30 30 30
-0.001342 -0.016428 0.353788 30 30 30
0.007213 -0.017221 0.354965 30 30 30
0.032162 -0.017602 0.354971 30 30 30
0.044590 -0.017617 0.354066 30 30 30
0.059546 -0.017463 0.354794 30 30 30
0.065463 -0.017969 0.354929 30 30 30
0.069338 -0.015873 0.354222 30 30 30
0.083415 -0.016082 0.353721 30 30 30
0.097319 -0.018051 0.354804 30 30 30
0.134158 -0.016665 0.353749 30 30 30
0.156540 -0.017614 0.354377 30 30 30
-0.425023 -0.014160 0.356015 30 30 30
-0.411784 -0.014559 0.356084 30 30 30
-0.407316 -0.012343 0.355330 30 30 30
-0.383512 -0.012672 0.355325 30 30 30
-0.372663 -0.012218 0.355132 30 30 30
-0.332178 -0.014320 0.355633 30 30 30
-0.325393 -0.012654 0.355041 30 30 30
-0.322634 -0.013283 0.355244 30 30 30
-0.293551 -0.014522 0.355506 30 30 30
-0.280276 -0.013136 0.354985 30 30 30
-0.274198 -0.012488 0.354742 30 30 30
-0.261972 -0.014402 0.355323 30 30 30
-0.255041 -0.013591 0.355022 30 30 30
-0.244541 -0.013240 0.354856 30 30 30
-0.232503 -0.012102 0.354417 30 30 30
-0.203482 -0.014839 0.355181 30 30 30
-0.198467 -0.014592 0.355082 30 30 30
-0.192072 -0.014285 0.353536 30 30 30
-0.176900 -0.014623 0.354989 30 30 30
-0.167701 -0.013311 0.354505 30 30 30
-0.164503 -0.012774 0.352979 30 30 30
-0.162939 -0.013626 0.354593 30 30 30
-0.155481 -0.014743 0.353604 30 30 30
-0.148227 -0.013947 0.354628 30 30 30
-0.125134 -0.015008 0.353618 30 30 30
-0.119702 -0.013612 0.353145 30 30 30
-0.104591 -0.013217 0.353577 30 30 30
-0.092420 -0.013184 0.354103 30 30 30
-0.090448 -0.014855 0.353482 30 30 30
-0.080724 -0.013494 0.353012 30 30 30
-0.055313 -0.014822 0.354467 30 30 30
-0.027784 -0.014321 0.353161 30 30 30
-0.010451 -0.014231 0.354062 30 30 30
-0.007729 -0.014893 0.354268 30 30 30
0.004242 -0.012471 0.353406 30 30 30
0.007065 -0.015051 0.353315 30 30 30
0.020048 -0.014231 0.353018 30 30 30
0.022853 -0.013295 0.353593 30 30 30
0.031143 -0.013280 0.353547 30 30 30
0.034456 -0.013684 0.353662 30 30 30
0.047389 -0.013185 0.352607 30 30 30
0.050171 -0.014819 0.353136 30 30 30
0.061041 -0.015149 0.354019 30 30 30
0.101477 -0.015448 0.353572 30 30 30
0.110411 -0.013481 0.353235 30 30 30
0.116727 -0.013936 0.353352 30 30 30
0.219109 -0.015436 0.353359 30 30 30
0.221876 -0.013604 0.352742 30 30 30
-0.428386 -0.010257 0.354747 30 30 30
-0.410810 -0.009307 0.354351 30 30 30
-0.402442 -0.009137 0.354248 30 30 30
-0.393097 -0.010655 0.354705 30 30 30
-0.370128 -0.009847 0.354333 30 30 30
-0.364989 -0.009360 0.354143 30 30 30
-0.358146 -0.010663 0.354549 30 30 30
-0.348173 -0.009628 0.354155 30 30 30
-0.336924 -0.010899 0.354525 30 30 30
-0.323188 -0.010668 0.354375 30 30 30
-0.318000 -0.010300 0.354237 30 30 30
-0.311419 -0.010000 0.354098 30 30 30
-0.301297 -0.011572 0.354569 30 30 30
-0.285817 -0.010667 0.354204 30 30 30
-0.281962 -0.011768 0.354545 30 30 30
-0.280069 -0.010168 0.354003 30 30 30
-0.264875 -0.010653 0.354091 30 30 30
-0.249632 -0.009830 0.353754 30 30 30
-0.237309 -0.011783 0.354340 30 30 30
-0.224262 -0.011519 0.354183 30 30 30
-0.219136 -0.011731 0.354232 30 30 30
-0.206482 -0.010265 0.353684 30 30 30
-0.205207 -0.010476 0.353755 30 30 30
-0.195233 -0.010046 0.353565 30 30 30
-0.188738 -0.012104 0.352347 30 30 30
-0.184852 -0.011026 0.353837 30 30 30
-0.180626 -0.009902 0.352075 30 30 30
-0.177782 -0.011894 0.352721 30 30 30
-0.174109 -0.009793 0.352025 30 30 30
-0.161475 -0.011041 0.353732 30 30 30
-0.153575 -0.011053 0.352385 30 30 30
-0.140524 -0.011556 0.353798 30 30 30
-0.138240 -0.011290 0.352423 30 30 30
-0.135030 -0.010405 0.352127 30 30 30
-0.127722 -0.009700 0.353121 30 30 30
-0.121772 -0.010737 0.353441 30 30 30
-0.115812 -0.012001 0.353830 30 30 30
-0.112863 -0.009493 0.352988 30 30 30
-0.102908 -0.009992 0.353099 30 30 30
-0.099351 -0.009832 0.353029 30 30 30
-0.081300 -0.009752 0.352919 30 30 30
-0.075514 -0.011298 0.353400 30 30 30
-0.057263 -0.009813 0.352286 30 30 30
-0.053684 -0.011869 0.353484 30 30 30
-0.041223 -0.010214 0.351846 30 30 30
-0.033241 -0.010452 0.351904 30 30 30
-0.012005 -0.011647 0.353213 30 30 30
-0.003589 -0.011641 0.352221 30 30 30
0.000128 -0.012320 0.352434 30 30 30
0.012604 -0.012568 0.352485 30 30 30
0.027571 -0.010397 0.351741 30 30 30
0.038252 -0.011882 0.352203 30 30 30
0.125773 -0.011602 0.352220 30 30 30
0.195769 -0.012364 0.352457 30 30 30
-0.439592 -0.007914 0.354031 30 30 30
-0.436089 -0.007838 0.353990 30 30 30
-0.430648 -0.006428 0.353488 30 30 30
-0.421928 -0.008313 0.354078 30 30 30
-0.417184 -0.008240 0.354022 30 30 30
-0.396534 -0.007199 0.353589 30 30 30
-0.382460 -0.008278 0.353878 30 30 30
-0.373340 -0.008617 0.353937 30 30 30
-0.359851 -0.008028 0.353678 30 30 30
-0.356472 -0.007331 0.353432 30 30 30
-0.339620 -0.007437 0.353395 30 30 30
-0.337205 -0.007488 0.353391 30 30 30
-0.301500 -0.007627 0.353275 30 30 30
-0.297295 -0.007450 0.353196 30 30 30
-0.287912 -0.008127 0.353367 30 30 30
-0.277404 -0.006520 0.352794 30 30 30
-0.267330 -0.007546 0.353077 30 30 30
-0.259440 -0.007572 0.353047 30 30 30
-0.255795 -0.008338 0.353283 30 30 30
-0.245020 -0.008568 0.353313 30 30 30
-0.236973 -0.008894 0.353377 30 30 30
-0.219409 -0.008159 0.353057 30 30 30
-0.214553 -0.006655 0.352537 30 30 30
-0.210026 -0.008126 0.353001 30 30 30
-0.197774 -0.008574 0.353084 30 30 30
-0.193160 -0.006457 0.352369 30 30 30
-0.189777 -0.007804 0.352791 30 30 30
-0.183269 -0.006880 0.351088 30 30 30
-0.167412 -0.008086 0.351445 30 30 30
-0.153324 -0.006860 0.351445 30 30 30
-0.147733 -0.008818 0.352932 30 30 30
-0.143238 -0.008598 0.351559 30 30 30
-0.131847 -0.007752 0.352504 30 30 30
-0.122404 -0.009218 0.352942 30 30 30
-0.109713 -0.006637 0.352029 30 30 30
-0.093821 -0.009467 0.351724 30 30 30
-0.065312 -0.009671 0.351725 30 30 30
-0.051227 -0.008776 0.351399 30 30 30
-0.046217 -0.008663 0.351346 30 30 30
-0.030236 -0.009480 0.352582 30 30 30
0.011419 -0.008359 0.352018 30 30 30
0.017960 -0.009698 0.351827 30 30 30
0.032999 -0.009431 0.351414 30 30 30
0.044647 -0.009840 0.351521 30 30 30
0.048185 -0.009298 0.352148 30 30 30
0.077938 -0.007982 0.351573 30 30 30
0.080187 -0.007919 0.351543 30 30 30
0.086184 -0.009303 0.351969 30 30 30
0.091887 -0.008720 0.351751 30 30 30
0.114699 -0.007710 0.351309 30 30 30
0.179474 -0.008903 0.351390 30 30 30
-0.444894 -0.003455 0.352574 30 30 30
-0.435401 -0.004358 0.352827 30 30 30
-0.426878 -0.003763 0.352599 30 30 30
-0.421582 -0.005204 0.353040 30 30 30
-0.413529 -0.003729 0.352524 30 30 30
-0.407539 -0.004935 0.352884 30 30 30
-0.405830 -0.004323 0.352678 30 30 30
-0.399820 -0.003657 0.352425 30 30 30
-0.393544 -0.004260 0.352594 30 30 30
-0.387199 -0.004551 0.352660 30 30 30
-0.382115 -0.003986 0.352454 30 30 30
-0.361024 -0.003956 0.352348 30 30 30
-0.357833 -0.003844 0.352291 30 30 30
-0.349421 -0.005320 0.352734 30 30 30
-0.329976 -0.003486 0.352044 30 30 30
-0.320088 -0.005863 0.352781 30 30 30
-0.308344 -0.005376 0.352560 30 30 30
-0.304332 -0.005031 0.352431 30 30 30
-0.285480 -0.003581 0.351854 30 30 30
-0.280473 -0.004004 0.351973 30 30 30
-0.260711 -0.005961 0.352525 30 30 30
-0.252763 -0.005298 0.352264 30 30 30
-0.244583 -0.005194 0.352195 30 30 30
-0.233069 -0.003696 0.351641 30 30 30
-0.225603 -0.006260 0.352460 30 30 30
-0.217882 -0.006123 0.352374 30 30 30
-0.207233 -0.005784 0.352207 30 30 30
-0.203434 -0.004578 0.351089 30 30 30
-0.171022 -0.005607 0.351982 30 30 30
-0.167405 -0.005034 0.351776 30 30 30
-0.165423 -0.005721 0.351993 30 30 30
-0.161970 -0.006291 0.352162 30 30 30
-0.149052 -0.006070 0.352030 30 30 30
-0.138307 -0.005527 0.351171 30 30 30
-0.133592 -0.004546 0.351453 30 30 30
-0.115785 -0.006515 0.352012 30 30 30
-0.111411 -0.004192 0.351224 30 30 30
-0.105997 -0.004957 0.351456 30 30 30
-0.093638 -0.005701 0.351643 30 30 30
-0.086355 -0.006107 0.351172 30 30 30
-0.074062 -0.006544 0.350718 30 30 30
-0.056765 -0.004266 0.349935 30 30 30
-0.048288 -0.005016 0.350163 30 30 30
-0.031668 -0.005798 0.351375 30 30 30
-0.022866 -0.003903 0.350705 30 30 30
-0.017890 -0.005814 0.351313 30 30 30
-0.015958 -0.004985 0.350069 30 30 30
-0.011711 -0.004881 0.350024 30 30 30
-0.005185 -0.005595 0.350714 30 30 30
0.000286 -0.006463 0.350977 30 30 30
0.006476 -0.006188 0.351322 30 30 30
0.021035 -0.005649 0.350200 30 30 30
0.023456 -0.004987 0.350844 30 30 30
0.027606 -0.006209 0.350367 30 30 30
0.036227 -0.004443 0.350605 30 30 30
0.039272 -0.005710 0.351005 30 30 30
0.065577 -0.006361 0.351094 30 30 30
0.077975 -0.004706 0.349999 30 30 30
0.159855 -0.004261 0.349953 30 30 30
0.177815 -0.004163 0.349834 30 30 30
0.206995 -0.005963 0.350289 30 30 30
-0.439772 -0.002760 0.352320 30 30 30
-0.406431 -0.000776 0.351515 30 30 30
-0.398745 -0.000870 0.351509 30 30 30
-0.381480 -0.001226 0.351544 30 30 30
-0.375424 -0.001446 0.351583 30 30 30
-0.361470 -0.001065 0.351395 30 30 30
-0.354080 -0.002621 0.351873 30 30 30
-0.338694 -0.001305 0.351359 30 30 30
-0.327003 -0.002853 0.351816 30 30 30
-0.324345 -0.001087 0.351220 30 30 30
-0.321256 -0.001695 0.351402 30 30 30
-0.311847 -0.002918 0.351769 30 30 30
-0.305026 -0.002147 0.351473 30 30 30
-0.299319 -0.001915 0.351369 30 30 30
-0.291674 -0.002796 0.351632 30 30 30
-0.269832 -0.003223 0.351668 30 30 30
-0.263923 -0.002873 0.351517 30 30 30
-0.259896 -0.001334 0.350997 30 30 30
-0.247217 -0.001376 0.350943 30 30 30
